0.165762, 0.177295, -1.63971
0.166003, -0.197472, -1.62448
0.168478, -0.344238, -1.63727
0.165668, 0.0513553, -1.63752
0.158816, 0.3615, -1.64229
0.157904, -0.085685, -1.62561
0.158609, 0.161275, -1.66303
0.157615, -0.289832, -1.63159
0.152303, 0.0990612, -1.62056
0.153369, -0.17659, -1.62248
0.132986, -0.170804, -1.62682
0.130219, -0.207555, -1.6116
0.126223, 0.082577, -1.62085
0.124474, -0.188457, -1.60633
0.148621, 0.136873, -1.96124
0.125166, -0.32018, -1.74099
0.112612, 0.240233, -1.62129
0.1128, -0.0384576, -1.62387
0.133331, -0.316951, -1.91371
0.128903, -0.204641, -1.87481
0.109377, -0.338314, -1.61841
0.127727, 0.3234, -1.94295
0.114515, 0.331155, -1.79877
0.121422, -0.189572, -1.89826
0.121057, -0.176471, -1.90377
0.117876, -0.203259, -1.89766
0.117196, -0.17371, -1.90428
0.0981158, -0.30736, -1.61078
0.0975167, -0.320675, -1.74505
0.0806039, 0.092559, -1.61813
0.0760712, -0.0738045, -1.60928
0.0909705, 0.150001, -1.93335
0.0777185, -0.316191, -1.88229
0.0532139, 0.0881108, -1.60332
0.0552496, 0.204864, -1.92205
0.0434517, 0.21417, -1.61549
0.0434565, 0.213927, -1.61437
0.0525379, 0.195786, -1.91893
0.0406413, -0.0534069, -1.58837
0.0508207, -0.302697, -1.9025
0.0452074, -0.327487, -1.86138
0.0374157, 0.344321, -1.77434
0.0306045, 0.231229, -1.59924
0.0280083, 0.101385, -1.6025
0.0310002, -0.211319, -1.88054
0.0299706, 0.337981, -1.91868
0.0275342, -0.199999, -1.89397
0.0242823, 0.33604, -1.91627
0.0242823, 0.33604, -1.91627
0.0238731, -0.293319, -1.91135
0.0202795, 0.227954, -1.60128
0.0170771, -0.200911, -1.88575
0.013377, -0.0554817, -1.58334
0.0144249, 0.0201842, -1.90464
0.00148144, 0.105116, -1.58779
-0.000865469, 0.327834, -1.89254
-0.00259731, 0.00124721, -1.88621
-0.00300499, -0.00553559, -1.88679
-0.00780185, -0.0121667, -1.88581
-0.0102852, 0.187476, -1.90313
-0.0200848, 0.340831, -1.90685
-0.0168751, 0.224802, -1.59108
-0.0229895, 0.194316, -1.89301
-0.0221028, -0.189005, -1.56586
-0.0311658, -0.194189, -1.56331
-0.044823, -0.121936, -1.87882
-0.0391387, 0.21747, -1.58586
-0.0484887, -0.190363, -1.5572
-0.050808, 0.359733, -1.59176
-0.0654663, -0.0603451, -1.5657
-0.0929197, 0.0438656, -1.87279
-0.0947307, 0.141639, -1.87753
-0.120587, 0.194198, -1.87212
-0.120824, 0.34387, -1.87301
-0.120021, -0.307454, -1.79176
-0.104553, 0.365457, -1.58738
-0.10542, 0.224014, -1.56068
-0.107221, 0.353441, -1.57497
-0.128342, 0.194431, -1.86726
-0.141861, 0.147272, -1.86571
-0.141861, 0.147272, -1.86571
-0.153974, 0.0349414, -1.86659
-0.135761, -0.0666342, -1.54519
-0.14417, 0.0922553, -1.54154
-0.145959, 0.211122, -1.56481
-0.173909, -0.0347638, -1.82925
-0.150966, 0.214664, -1.56232
-0.190789, 0.0296379, -1.85394
-0.194527, -0.0150783, -1.84581
-0.166543, -0.0577921, -1.52685
-0.171775, 0.22508, -1.54346
-0.170727, 0.223387, -1.54271
-0.218946, -0.183897, -1.82098
-0.187675, 0.225435, -1.53549
-0.191751, -0.198765, -1.51974
-0.191241, 0.0937504, -1.52685
-0.193491, 0.211117, -1.55885
-0.190176, -0.0546104, -1.51873
-0.199056, -0.0618484, -1.52001
-0.243155, -0.169407, -1.80291
-0.208258, -0.324957, -1.5338
-0.242738, -0.302938, -1.76786
-0.245939, -0.178711, -1.80255
-0.249595, 0.14478, -1.82012
-0.25243, 0.293175, -1.85344
-0.25132, 0.286312, -1.83603
-0.253008, -0.198507, -1.80069
-0.253363, 0.284762, -1.84017
-0.255759, -0.00981313, -1.7909
-0.260284, -0.160456, -1.79674
-0.218851, 0.0971674, -1.51829
-0.26056, 0.170146, -1.80999
-0.259839, 0.157282, -1.80222
-0.264121, 0.0414049, -1.80134
-0.264536, 0.153597, -1.80309
-0.274868, 0.334074, -1.81895
-0.22777, -0.323229, -1.51081
-0.277577, 0.0399852, -1.79646
-0.242324, 0.229447, -1.5203
-0.244662, -0.313987, -1.47351
-0.296153, 0.145744, -1.7893
-0.298003, 0.167007, -1.79162
-0.250205, 0.107866, -1.52019
-0.252851, 0.0846903, -1.50019
-0.306488, -0.0311767, -1.77949
-0.305042, 0.200118, -1.79034
-0.262227, -0.193547, -1.49403
-0.262406, 0.1041, -1.50635
-0.262406, 0.1041, -1.50635
-0.310343, 0.186394, -1.79342
-0.261081, 0.224311, -1.51862
-0.274616, 0.357584, -1.55734
-0.32092, 0.175497, -1.78175
-0.325896, -0.0277371, -1.76847
-0.277465, 0.218217, -1.51456
-0.277911, 0.0895123, -1.50628
-0.302209, 0.00892915, -1.60507
-0.284739, 0.0936983, -1.50172
-0.310037, 0.026466, -1.59291
-0.290436, 0.098092, -1.4939
-0.34436, 0.146775, -1.74054
-0.12709, -0.0412687, -0.61315
-0.30991, -0.0296548, -1.50817
-0.31714, -0.219072, -1.51145
-0.130991, -0.0296601, -0.625738
-0.315824, -0.0830448, -1.51137
-0.310544, -0.202723, -1.47948
-0.309508, -0.0534127, -1.47966
-0.313174, -0.212558, -1.48452
-0.420139, -0.073773, -1.97773
-0.318838, -0.202359, -1.4879
-0.129238, -0.0526842, -0.596164
-0.128283, -0.055144, -0.590874
-0.12744, -0.0628957, -0.586794
-0.343744, 0.00263471, -1.59484
-0.132343, -0.0407676, -0.609442
-0.318714, 0.0811107, -1.47735
-0.319883, -0.206477, -1.4682
-0.131511, -0.047635, -0.602908
-0.134871, -0.033205, -0.618446
-0.321311, 0.0824644, -1.48951
-0.313528, 0.219688, -1.46104
-0.313528, 0.219688, -1.46104
-0.133246, -0.0416756, -0.60837
-0.323572, -0.213455, -1.47403
-0.321945, 0.0842333, -1.49367
-0.134947, -0.0362531, -0.614542
-0.134947, -0.0362531, -0.614542
-0.327964, -0.0577295, -1.46769
-0.137781, -0.0361743, -0.612351
-0.134991, -0.0478684, -0.597873
-0.317059, 0.347679, -1.41753
-0.137109, -0.0652076, -0.583726
-0.349309, 0.246297, -1.49524
-0.138898, -0.0570215, -0.581605
-0.147752, -0.0293728, -0.618523
-0.139627, -0.0541381, -0.583418
-0.140952, -0.0524269, -0.587364
-0.353349, 0.256761, -1.49086
-0.140863, -0.0674069, -0.580165
-0.355698, 0.220957, -1.47989
-0.144996, -0.0480573, -0.596259
-0.35457, -0.198836, -1.45094
-0.143374, -0.0497096, -0.587747
-0.34986, 0.100889, -1.44655
-0.148284, -0.0390391, -0.603328
-0.143353, -0.0597436, -0.573862
-0.147698, -0.0455995, -0.590364
-0.146675, -0.0609865, -0.572163
-0.35951, 0.0309176, -1.40931
-0.153166, -0.0421957, -0.592387
-0.359808, 0.0925276, -1.40324
-0.373847, -0.201265, -1.43529
-0.157778, -0.0314965, -0.607871
-0.161052, -0.03367, -0.618182
-0.36394, 0.00486369, -1.40562
-0.361584, 0.00763919, -1.39001
-0.150689, -0.0518205, -0.576903
-0.159807, -0.030281, -0.607686
-0.367198, -0.10898, -1.38382
-0.159494, -0.0343582, -0.599395
-0.374402, -0.103101, -1.38102
-0.373431, -0.147517, -1.37106
-0.368069, -0.0444434, -1.35642
-0.166676, -0.0260637, -0.610024
-0.370445, 0.0331123, -1.35443
-0.371684, 0.129606, -1.35281
-0.371229, -0.0461383, -1.33467
-0.374543, -0.062066, -1.35158
-0.378221, 0.00107545, -1.33251
-0.374937, -0.122618, -1.30017
-0.168223, -0.0401433, -0.583572
-0.168223, -0.0401433, -0.583572
-0.172203, -0.0311078, -0.596061
-0.17143, -0.0359051, -0.59073
-0.387312, -0.0550895, -1.32272
-0.379016, 0.103814, -1.29711
-0.382803, -0.10642, -1.28977
-0.381051, -0.107095, -1.28518
-0.385908, -0.110324, -1.30247
-0.382529, -0.117595, -1.28054
-0.370343, 0.0802971, -1.24655
-0.368844, 0.0163741, -1.23426
-0.382935, -0.103297, -1.27129
-0.374737, 0.0173408, -1.25179
-0.384072, -0.126858, -1.26809
-0.375917, 0.0522109, -1.23973
-0.382403, 0.0773999, -1.23632
-0.38787, -0.151368, -1.23301
-0.402444, -0.164147, -1.2774
-0.445064, -0.219538, -1.41663
-0.388377, 0.0434133, -1.2349
-0.390147, 0.0416778, -1.23211
-0.403166, 0.0577595, -1.27155
-0.394592, 0.098327, -1.24391
-0.398674, 0.0491095, -1.23497
-0.404166, 0.161483, -1.17746
-0.20557, -0.0298073, -0.57828
0.719521, -0.011253, -2.1096
0.688627, -0.035199, -2.09571
0.813972, -0.063353, -2.45898
0.637451, -0.131963, -2.06372
0.633669, -0.164573, -2.06141
0.609072, -0.143869, -2.08264
0.570397, -0.171922, -2.04031
0.523676, 0.0955492, -2.02242
0.51902, 0.0327997, -2.03172
0.518452, 0.0687597, -2.02684
0.512592, 0.240334, -2.02905
0.516205, -0.0320441, -2.04604
0.512939, -0.0342198, -2.03012
0.514692, -0.00317642, -2.0373
0.51596, -0.0394126, -2.04541
0.496076, 0.182278, -2.05461
0.487767, -0.118834, -2.02233
0.462919, 0.178324, -2.03006
0.46785, 0.142221, -2.05593
0.463407, 0.00275154, -2.02759
0.447201, 0.0230635, -2.02074
0.447201, 0.0230635, -2.02074
0.416062, -0.00417556, -2.01607
0.395574, -0.0665888, -2.0021
0.374554, -0.0311348, -1.99873
0.354215, 0.148893, -2.00587
0.343121, 0.133282, -2.0094
0.338994, -0.151183, -1.9852
0.32028, 0.156746, -2.0082
0.25526, -0.388032, -1.66344
0.233724, 0.184267, -1.66084
0.232384, 0.0839207, -1.65441
0.232974, -0.0993371, -1.64495
0.231962, -0.331556, -1.64575
0.226813, 0.231496, -1.65833
0.228808, -0.297332, -1.64507
0.226516, 0.170915, -1.65668
0.222384, -0.289443, -1.62754
0.222711, -0.124791, -1.64103
0.22046, 0.315337, -1.66124
0.22011, 0.210239, -1.65692
0.219414, 0.325605, -1.66388
0.218036, 0.194667, -1.65441
0.218036, 0.194667, -1.65441
0.216776, 0.138474, -1.64832
0.21586, 0.141039, -1.65237
0.214621, 0.242493, -1.6528
0.211109, -0.111864, -1.63801
0.210294, -0.187141, -1.62781
0.205165, -0.251779, -1.62565
0.202963, -0.343485, -1.60835
0.203304, 0.351916, -1.65799
0.20365, 0.306996, -1.65873
0.202359, 0.0849507, -1.6367
0.202265, 0.0786662, -1.63791
0.201934, 0.00580209, -1.63493
0.201601, -0.00269902, -1.63304
0.20428, -0.285439, -1.63922
0.201308, -0.0305382, -1.63238
0.200765, 0.124809, -1.64204
0.20026, -0.11791, -1.62652
0.199751, -0.196948, -1.62951
0.199481, -0.196242, -1.6263
0.182879, -0.301898, -1.618
0.18318, -0.0478922, -1.63706
0.178987, -0.105648, -1.63091
0.180338, 0.282725, -1.66317
0.177786, 0.016031, -1.6376
0.176356, 0.235719, -1.64676
0.176105, 0.0203482, -1.63172
0.172619, 0.136369, -1.63628
0.172728, 0.277728, -1.64791
0.165717, 0.302739, -1.64095
0.165264, -0.00340912, -1.63419
0.160419, -0.344997, -1.60149
0.158272, -0.0290841, -1.64187
0.15663, -0.314037, -1.62352
0.158741, 0.268815, -1.68144
0.151812, 0.193426, -1.64899
0.140862, -0.170802, -1.62505
0.134709, -0.174238, -1.61878
0.132155, -0.337535, -1.59475
0.141325, 0.335437, -1.78904
0.128487, -0.341042, -1.59442
0.128573, -0.18473, -1.61003
0.133632, -0.315923, -1.72525
0.143315, 0.288686, -1.91945
0.125941, -0.322958, -1.73344
0.12284, 0.33431, -1.78807
0.10967, -0.187635, -1.60742
0.126405, 0.0148021, -1.90042
0.105523, -0.0617687, -1.61105
0.106005, -0.30761, -1.60415
0.122489, 0.13107, -1.88672
0.121628, 0.149622, -1.89879
0.0954797, 0.0727214, -1.62584
0.0896455, 0.0759073, -1.62046
0.104243, -0.157623, -1.91257
0.104644, -0.158071, -1.91334
0.0912168, -0.319628, -1.74827
0.0904332, -0.329392, -1.73741
0.0901869, -0.314502, -1.74187
0.0932226, -0.328906, -1.76264
0.0641046, 0.356736, -1.63147
0.0646558, -0.31413, -1.72691
0.0558169, 0.104762, -1.60689
0.0638211, -0.129805, -1.91347
0.0626455, 0.0369655, -1.91853
0.0568725, -0.123874, -1.90563
0.0400327, -0.335125, -1.56457
0.0308091, 0.30774, -1.92159
0.0139031, -0.31925, -1.5559
0.0120957, 0.0810354, -1.59556
0.00860257, -0.11944, -1.89329
-0.0270163, 0.343161, -1.88651
-0.0389487, 0.00909482, -1.87292
-0.0393994, -0.187192, -1.56106
-0.0416445, 0.220294, -1.57756
-0.0443929, -0.173241, -1.56462
-0.0569888, 0.235665, -1.5737
-0.0765376, 0.182429, -1.88608
-0.0666574, 0.218473, -1.58092
-0.078749, 0.306972, -1.88095
-0.0659142, 0.34052, -1.58276
-0.0879675, 0.0105236, -1.87159
-0.0882355, 0.0105351, -1.86918
-0.0890136, 0.330939, -1.85081
-0.0764463, 0.090544, -1.56025
-0.094332, -0.0426674, -1.86309
-0.0803977, -0.0653816, -1.56399
-0.0975692, 0.165031, -1.87921
-0.106293, -0.0419179, -1.85688
-0.111088, -0.0421214, -1.8553
-0.111088, -0.0421214, -1.8553
-0.0954056, -0.0602233, -1.54894
-0.144782, -0.00018959, -1.8638
-0.154112, -0.139362, -1.84977
-0.156346, 0.289833, -1.84759
-0.146474, 0.0910053, -1.53802
-0.147838, 0.226463, -1.5379
-0.148634, -0.193104, -1.5281
-0.15397, 0.0800183, -1.54248
-0.158779, 0.210596, -1.54317
-0.190712, 0.180177, -1.85178
-0.165292, -0.187482, -1.52009
-0.164802, 0.0977185, -1.54168
-0.168163, -0.18987, -1.52033
-0.17222, 0.232402, -1.53127
-0.221687, -0.188089, -1.81925
-0.196671, 0.239556, -1.54231
-0.201348, 0.240819, -1.51326
-0.24853, -0.124346, -1.80333
-0.254376, 0.339513, -1.82298
-0.254562, 0.161285, -1.81101
-0.259604, -0.178544, -1.78851
-0.259604, -0.178544, -1.78851
-0.238716, 0.358314, -1.53278
-0.279878, 0.131446, -1.77085
-0.244935, 0.221405, -1.49385
-0.262764, -0.200627, -1.50974
-0.32611, -0.0329028, -1.76232
-0.329818, -0.18945, -1.77564
-0.274369, 0.225381, -1.51342
-0.116022, -0.0701972, -0.599764
-0.124166, -0.0766256, -0.639186
-0.292345, 0.101298, -1.50591
-0.123211, -0.045208, -0.610801
-0.295528, 0.213715, -1.48703
-0.127056, -0.0324496, -0.624768
-0.122216, -0.0678156, -0.595217
-0.128121, -0.0313564, -0.625265
-0.124528, -0.048675, -0.604347
-0.130529, -0.0644886, -0.648361
-0.298393, 0.249218, -1.47265
-0.128358, -0.0378345, -0.615757
-0.305758, 0.0968143, -1.49298
-0.128242, -0.0403674, -0.612632
-0.128242, -0.0403674, -0.612632
-0.129304, -0.0372993, -0.61537
-0.127526, -0.0465718, -0.606825
-0.127302, -0.0477558, -0.605073
-0.128927, -0.0420384, -0.610811
-0.126316, -0.0530613, -0.597728
-0.126316, -0.0530613, -0.597728
-0.311138, -0.0496841, -1.46965
-0.130418, -0.0373389, -0.615122
-0.127228, -0.0530936, -0.595376
-0.315178, -0.0754192, -1.47438
-0.342299, 0.0314007, -1.59692
-0.316893, -0.0783554, -1.46793
-0.322318, -0.0246977, -1.4927
-0.129637, -0.0556246, -0.591646
-0.320872, -0.0402918, -1.47837
-0.319869, -0.0469788, -1.47406
-0.132321, -0.0460359, -0.599471
-0.136495, -0.0342188, -0.616395
-0.328121, 0.224375, -1.49332
-0.133536, -0.0531713, -0.590596
-0.136108, -0.0434687, -0.601648
-0.137737, -0.0431905, -0.606995
-0.140682, -0.0784397, -0.635433
-0.135928, -0.0487195, -0.597324
-0.134403, -0.065482, -0.587894
-0.337987, 0.369701, -1.50745
-0.142796, -0.038709, -0.613174
-0.141743, -0.0785232, -0.635395
-0.137063, -0.0505945, -0.597536
-0.136979, -0.0477861, -0.596807
-0.135079, -0.0680361, -0.587027
-0.135079, -0.0680361, -0.587027
-0.337243, 0.345568, -1.50501
-0.140548, -0.0401007, -0.609972
-0.139338, -0.0399419, -0.605747
-0.138835, -0.0431512, -0.603854
-0.136773, -0.049473, -0.592724
-0.138689, -0.0433371, -0.599586
-0.13866, -0.0497491, -0.59194
-0.140392, -0.0449998, -0.596643
-0.141507, -0.0457983, -0.600125
-0.142866, -0.0393003, -0.605899
-0.140395, -0.0487096, -0.593333
-0.141223, -0.0494221, -0.595721
-0.138717, -0.0641433, -0.580409
-0.144514, -0.0402548, -0.601743
-0.14606, -0.0363158, -0.606763
-0.147835, -0.0304746, -0.614134
-0.14196, -0.0519416, -0.588152
-0.141261, -0.0523841, -0.585443
-0.373406, -0.258778, -1.54408
-0.145228, -0.0411725, -0.600497
-0.140667, -0.055369, -0.58034
-0.140592, -0.0564639, -0.579278
-0.148705, -0.030948, -0.613573
-0.144848, -0.0446381, -0.595946
-0.356489, 0.225287, -1.48047
-0.145014, -0.0429319, -0.59591
-0.352552, -0.134218, -1.4459
-0.141483, -0.064528, -0.578788
-0.144022, -0.0695138, -0.58688
-0.145684, -0.0447001, -0.594609
-0.143452, -0.0521339, -0.584704
-0.148695, -0.0373427, -0.604459
-0.148695, -0.0373427, -0.604459
-0.34366, 0.158773, -1.416
-0.150077, -0.0339506, -0.608459
-0.143652, -0.0533583, -0.581048
-0.148897, -0.0386564, -0.602201
-0.147385, -0.0443807, -0.592404
-0.147521, -0.0523129, -0.590289
-0.149777, -0.0388962, -0.600641
-0.358043, -0.0736519, -1.43089
-0.147216, -0.0468108, -0.589233
-0.358323, -0.0430466, -1.4365
-0.145722, -0.0526056, -0.581048
-0.147816, -0.0455583, -0.588178
-0.153091, -0.041297, -0.604355
-0.357171, -0.00789453, -1.4163
-0.153524, -0.0336622, -0.606397
-0.146287, -0.0662348, -0.574377
-0.364654, 0.0339765, -1.42774
-0.155625, -0.0320663, -0.608129
-0.153924, -0.0380045, -0.599408
-0.157834, -0.029829, -0.608021
-0.160184, -0.0319251, -0.615891
-0.154733, -0.0386036, -0.595715
-0.363161, 0.0893459, -1.40242
-0.365246, -0.0702727, -1.39897
-0.36119, 0.0237813, -1.38895
-0.158525, -0.0307763, -0.606858
-0.368488, -0.0760055, -1.40164
-0.364503, 0.0481931, -1.38495
-0.369883, -0.10512, -1.36717
-0.372143, -0.118237, -1.37108
-0.153502, -0.0573722, -0.566983
-0.153502, -0.0573722, -0.566983
-0.399902, -0.184971, -1.46854
-0.368009, 0.328828, -1.38835
-0.372209, 0.0393688, -1.33521
-0.374178, -0.11345, -1.32864
-0.405422, -0.190962, -1.43306
-0.378202, -0.00127911, -1.34578
-0.166849, -0.0390964, -0.581858
-0.171704, -0.0321408, -0.596688
-0.168997, -0.0383318, -0.586581
-0.174094, -0.0472833, -0.585783
-0.382808, -0.107772, -1.26989
-0.438929, -0.210262, -1.42116
-0.389613, -0.103171, -1.23806
-0.39071, 0.0373875, -1.24941
-0.388552, 0.0398488, -1.22983
-0.390178, 0.0397834, -1.23387
-0.407171, -0.163804, -1.27437
-0.391519, 0.0491561, -1.23313
-0.393909, 0.0508807, -1.23409
-0.406445, 0.00577033, -1.24768
-0.209107, -0.0389193, -0.578861
0.617534, -0.133133, -2.0569
0.540937, 0.152474, -2.06418
0.525627, 0.0915634, -2.03071
0.509531, 0.188551, -2.04814
0.508987, 0.098028, -2.03071
0.505552, -0.0886761, -2.02534
0.508825, -0.104989, -2.03301
0.502449, -0.0304852, -2.03508
0.502449, -0.0304852, -2.03508
0.5009, -0.171678, -2.02187
0.488354, -0.194005, -2.03331
0.392131, 0.0603218, -1.99398
0.368767, -0.0893884, -1.98792
0.367013, -0.185694, -1.99318
0.365307, 0.0434593, -2.00536
0.364772, -0.067993, -2.0014
0.358615, -0.22611, -1.97001
0.347379, 0.212031, -1.99561
0.351949, -0.0418141, -2.00165
0.325298, 0.115929, -1.95914
0.329936, 0.146883, -1.99818
0.329886, -0.250902, -2.00118
0.291958, -0.18478, -1.97701
0.233607, 0.163571, -1.65943
0.232162, 0.154399, -1.64844
0.228289, -0.0923506, -1.63865
0.226293, -0.249104, -1.64364
0.225775, -0.0574058, -1.64365
0.223262, -0.0643924, -1.64484
0.222077, 0.182158, -1.65669
0.221644, 0.0894816, -1.64913
0.214575, -0.200075, -1.63573
0.212739, -0.172916, -1.63175
0.212193, 0.240317, -1.65238
0.204814, 0.136511, -1.63737
0.199356, 0.136947, -1.64275
0.180387, 0.0228518, -1.63771
0.178005, 0.0387275, -1.63487
0.176377, 0.000144835, -1.63023
0.176671, 0.350756, -1.65364
0.176081, 0.303998, -1.65146
0.173054, -0.153623, -1.62351
0.172657, 0.268283, -1.64258
0.170086, 0.0870502, -1.64523
0.162083, 0.363208, -1.64641
0.161448, -0.0321386, -1.62891
0.160589, -0.120758, -1.64074
0.14912, 0.112016, -1.63839
0.128493, -0.320612, -1.7249
0.117446, 0.22143, -1.63392
0.114284, -0.322328, -1.59054
0.112633, 0.369683, -1.65215
0.13068, -0.186601, -1.88483
0.127614, 0.127764, -1.91027
0.107964, -0.314603, -1.89503
0.0655746, 0.00245497, -1.90981
0.0689861, -0.122978, -1.92936
0.0542346, -0.339693, -1.59513
0.0644742, -0.306398, -1.90641
0.0381595, -0.321606, -1.57604
0.0342078, -0.308928, -1.89703
0.0335545, -0.327841, -1.85555
0.0267526, 0.0984722, -1.60082
0.0205115, 0.100949, -1.59289
-0.000173281, -0.187673, -1.57433
-0.0022895, -0.18192, -1.57274
-0.0303294, 0.145382, -1.89292
-0.0448252, 0.323446, -1.83697
-0.0399919, -0.0465731, -1.56667
-0.0527287, 0.211718, -1.58228
-0.0524524, -0.0491125, -1.56882
-0.0594228, 0.22118, -1.57998
-0.0723831, -0.300005, -1.88302
-0.117023, -0.0433584, -1.86107
-0.102068, -0.187722, -1.53976
-0.107902, -0.0512964, -1.54376
-0.128788, -0.151891, -1.83155
-0.157471, 0.139511, -1.83581
-0.163738, -0.332535, -1.5552
-0.16018, 0.225038, -1.54292
-0.167128, -0.323884, -1.54834
-0.210177, 0.129922, -1.8151
-0.18981, 0.220252, -1.52756
-0.182946, 0.356876, -1.48649
-0.188355, -0.304224, -1.52523
-0.190663, 0.234454, -1.54109
-0.238332, -0.137394, -1.79554
-0.245872, -0.0291242, -1.80933
-0.242527, 0.288156, -1.78182
-0.21339, -0.0510892, -1.5144
-0.266218, 0.0217446, -1.79987
-0.214359, 0.36159, -1.47458
-0.275598, 0.0427815, -1.79973
-0.281469, 0.192717, -1.80003
-0.239578, 0.229691, -1.49604
-0.24928, -0.31323, -1.49924
-0.252374, 0.0959173, -1.51357
-0.304086, 0.183165, -1.8185
-0.265498, -0.047984, -1.50399
-0.322123, 0.154662, -1.74953
-0.281122, -0.182356, -1.48364
-0.287743, 0.0976109, -1.49826
-0.278103, 0.356441, -1.44839
-0.315203, 0.0247321, -1.59101
-0.127749, -0.0891371, -0.648628
-0.296683, 0.217256, -1.51112
-0.124537, -0.0447056, -0.610556
-0.126602, -0.037251, -0.619568
-0.126406, -0.0408851, -0.615289
-0.126406, -0.0408851, -0.615289
-0.125764, -0.0413367, -0.611804
-0.125764, -0.0413367, -0.611804
-0.129671, -0.0498784, -0.640896
-0.126945, -0.0386404, -0.615805
-0.127776, -0.0364901, -0.619386
-0.127296, -0.0371211, -0.616843
-0.127296, -0.0371211, -0.616843
-0.127654, -0.0395893, -0.615044
-0.312162, -0.0671682, -1.50735
-0.125789, -0.0515535, -0.600294
-0.130088, -0.0352013, -0.619338
-0.127734, -0.0490258, -0.602298
-0.131451, -0.0409129, -0.610698
-0.130234, -0.0472329, -0.602264
-0.128214, -0.0660439, -0.589569
-0.13457, -0.0344686, -0.617678
-0.132157, -0.0451243, -0.604773
-0.129605, -0.0549235, -0.592989
-0.318379, 0.114732, -1.47627
-0.135381, -0.03228, -0.620048
-0.130831, -0.0534301, -0.595605
-0.328447, -0.17068, -1.49721
-0.319612, 0.105377, -1.46505
-0.131077, -0.0664105, -0.590224
-0.131035, -0.0663431, -0.589635
-0.135247, -0.0391634, -0.61142
-0.13123, -0.0519339, -0.592647
-0.134845, -0.042534, -0.606284
-0.137722, -0.0406007, -0.608849
-0.135084, -0.0498279, -0.595044
-0.138416, -0.043679, -0.606076
-0.137357, -0.0428287, -0.602369
-0.134801, -0.0543204, -0.591326
-0.137241, -0.0460614, -0.598015
-0.346655, 0.356222, -1.53417
-0.141694, -0.0353147, -0.610824
-0.140555, -0.0429796, -0.601787
-0.138177, -0.068278, -0.586895
-0.345121, -0.20005, -1.46318
-0.345862, -0.201949, -1.45859
-0.140883, -0.0472153, -0.595326
-0.144233, -0.0418967, -0.601345
-0.142561, -0.0509358, -0.586186
-0.350823, -0.112203, -1.43245
-0.149084, -0.0340232, -0.609483
-0.149084, -0.0340232, -0.609483
-0.142352, -0.0549828, -0.576938
-0.14503, -0.0563176, -0.586412
-0.14503, -0.0563176, -0.586412
-0.358658, -0.194813, -1.44463
-0.145667, -0.0486361, -0.587782
-0.147568, -0.0565469, -0.590571
-0.146386, -0.0556719, -0.587261
-0.353072, 0.0789792, -1.42384
-0.14716, -0.0539714, -0.589879
-0.145154, -0.0519724, -0.582568
-0.146141, -0.0484807, -0.584861
-0.357069, -0.110018, -1.42889
-0.144766, -0.0543865, -0.578265
-0.156613, -0.0543533, -0.631502
-0.152448, -0.0351206, -0.603552
-0.364849, -0.219041, -1.43345
-0.360119, 0.0646232, -1.41982
-0.361608, -0.0537942, -1.41753
-0.147852, -0.0524908, -0.580182
-0.365952, -0.0873056, -1.42635
-0.147183, -0.0645372, -0.574325
-0.152323, -0.0400398, -0.594745
-0.352185, 0.307853, -1.39791
-0.157459, -0.0302098, -0.610982
-0.158382, -0.0332985, -0.612786
-0.149941, -0.0517427, -0.57802
-0.362277, -0.12271, -1.39077
-0.15518, -0.041968, -0.589146
-0.155824, -0.0706668, -0.587142
-0.385617, 0.31152, -1.47697
-0.365434, 0.137784, -1.38958
-0.366257, 0.113381, -1.38693
-0.366257, 0.113381, -1.38693
-0.363861, 0.101367, -1.3886
-0.366676, 0.0748447, -1.38922
-0.366676, 0.0748447, -1.38922
-0.359711, 0.120447, -1.37271
-0.358906, 0.121093, -1.36672
-0.372468, -0.143164, -1.38752
-0.391586, 0.322584, -1.47781
-0.365364, -0.122534, -1.34822
-0.373321, -0.0788469, -1.37044
-0.378642, -0.112263, -1.38898
-0.159057, -0.0673956, -0.580635
-0.369695, -0.0544834, -1.33717
-0.369022, -0.0779042, -1.33564
-0.369621, -0.110035, -1.33437
-0.370444, 0.0722396, -1.34454
-0.363526, 0.149402, -1.33084
-0.37073, 0.181579, -1.35839
-0.165738, -0.067822, -0.58384
-0.378365, 0.0379813, -1.36259
-0.384629, 0.268871, -1.40735
-0.384629, 0.268871, -1.40735
-0.158712, -0.0631943, -0.565218
-0.377719, -0.0436541, -1.33996
-0.409553, -0.19692, -1.42844
-0.17083, -0.0325846, -0.593913
-0.17083, -0.0325846, -0.593913
-0.374098, 0.131657, -1.2996
-0.378472, -0.134014, -1.28705
-0.376991, -0.10056, -1.28381
-0.371959, 0.0397237, -1.23418
-0.375343, 0.0269366, -1.22798
-0.38872, -0.0939203, -1.26263
-0.386261, -0.100826, -1.25317
-0.387414, -0.119287, -1.25086
-0.38809, 0.0274179, -1.26413
-0.441122, -0.222808, -1.4144
-0.387408, 0.0322434, -1.22701
-0.390562, 0.0460954, -1.23217
-0.186155, -0.0672555, -0.569222
-0.399783, -0.00946236, -1.19762
-0.402228, -0.0909667, -1.1861
-0.407633, 0.165859, -1.19065
-0.408108, 0.165099, -1.17815
0.675221, 0.00755654, -2.07417
0.598714, -0.138314, -2.07104
0.611219, -0.141607, -2.10522
0.540779, -0.0449002, -2.02996
0.538459, -0.0360241, -2.03836
0.533762, -0.0470259, -2.0306
0.509532, 0.193862, -2.04936
0.507925, 0.00211072, -2.03881
0.493572, 0.174773, -2.05286
0.471775, -0.00867633, -2.03297
0.450242, 0.0684209, -2.01516
0.41221, 0.0339787, -1.96523
0.365986, 0.038893, -1.99745
0.211202, -0.0785967, -1.25672
0.304659, -0.244133, -1.98989
0.235344, -0.0699132, -1.64232
0.235378, 0.274673, -1.66856
0.234615, 0.28105, -1.67128
0.232262, -0.0222325, -1.64604
0.226352, -0.143033, -1.63909
0.218442, -0.287205, -1.63137
0.21813, 0.375533, -1.67697
0.21813, 0.375533, -1.67697
0.216743, 0.0392228, -1.64139
0.216433, 0.0386446, -1.64022
0.231871, 0.420207, -1.79558
0.20381, -0.204486, -1.6341
0.204579, -0.330595, -1.64224
0.180479, -0.323461, -1.60354
0.178928, 0.240143, -1.64613
0.174898, 0.274936, -1.64645
0.177668, 0.278122, -1.65957
0.16925, 0.239575, -1.64017
0.167518, 0.204075, -1.63226
0.161184, -0.0429298, -1.61672
0.162719, -0.269213, -1.62497
0.147894, -0.0931949, -1.65182
0.127647, 0.0932441, -1.62182
0.127564, 0.340274, -1.79439
0.13885, 0.177618, -1.94098
0.107061, -0.191045, -1.61254
0.104987, -0.194992, -1.60773
0.106341, -0.310806, -1.74719
0.087538, 0.078085, -1.60509
0.0860496, -0.338674, -1.61057
0.0610861, -0.31492, -1.87952
0.0461215, 0.172674, -1.91857
0.0385178, -0.0565729, -1.59023
0.00182259, -0.174215, -1.89027
0.00182259, -0.174215, -1.89027
-0.015408, -0.176535, -1.89483
-0.0356543, -0.170836, -1.86016
-0.0356543, -0.170836, -1.86016
-0.0553201, -0.0547806, -1.56101
-0.0702401, 0.155237, -1.88939
-0.0696544, 0.297668, -1.89137
-0.0825406, 0.346426, -1.53826
-0.10829, 0.363366, -1.57726
-0.110871, 0.35862, -1.57605
-0.155041, -0.169206, -1.83409
-0.172064, 0.0350529, -1.85334
-0.167468, -0.187088, -1.52387
-0.177178, 0.213785, -1.54036
-0.178453, 0.230959, -1.52917
-0.189847, -0.354517, -1.55995
-0.188474, 0.0777155, -1.53321
-0.195926, 0.365203, -1.55569
-0.198386, -0.191937, -1.51185
-0.207595, 0.363515, -1.49286
-0.254358, 0.318531, -1.74446
-0.284108, 0.188373, -1.81766
-0.257796, 0.0776228, -1.5139
-0.309997, 0.197936, -1.79625
-0.316303, -0.153097, -1.78172
-0.320884, 0.0113333, -1.59933
-0.125529, -0.0504577, -0.601731
-0.125529, -0.0504577, -0.601731
-0.295381, 0.36108, -1.42895
-0.129406, -0.048816, -0.599602
-0.323804, -0.172407, -1.49158
-0.325721, -0.022365, -1.50014
-0.331539, -0.0778555, -1.51793
-0.136307, -0.0380586, -0.612062
-0.335434, -0.207156, -1.48994
-0.13917, -0.0461118, -0.601364
-0.346511, 0.0769796, -1.50651
-0.346309, -0.11919, -1.45503
-0.346318, -0.119206, -1.45544
-0.347444, -0.131126, -1.45922
-0.354934, -0.137776, -1.48928
-0.349069, -0.0563005, -1.46773
-0.349686, -0.0907819, -1.46664
-0.350408, -0.0907828, -1.46659
-0.352546, -0.0540946, -1.47194
-0.350418, -0.0958547, -1.45006
-0.350864, -0.129828, -1.45486
-0.349117, 0.147583, -1.46444
-0.140981, -0.0620477, -0.577257
-0.345233, 0.0742688, -1.42732
-0.346029, 0.0736501, -1.43247
-0.356238, -0.0482017, -1.4478
-0.147105, -0.0459361, -0.592238
-0.358208, -0.0150107, -1.43709
-0.354397, -0.0906119, -1.42646
-0.353391, -0.106629, -1.41813
-0.355618, -0.123979, -1.43068
-0.355618, -0.123979, -1.43068
-0.355237, -0.129547, -1.42282
-0.353225, -0.0716491, -1.42627
-0.357114, 0.0762733, -1.42281
-0.358682, -0.0702307, -1.42042
-0.369868, 0.231772, -1.48039
-0.1584, -0.0493702, -0.635627
-0.155113, -0.0719827, -0.620126
-0.145449, -0.0604154, -0.573097
-0.359021, -0.0736094, -1.42077
-0.361418, -0.0629357, -1.41779
-0.357698, -0.0933326, -1.40894
-0.362518, -0.0299333, -1.42924
-0.360012, 0.138596, -1.40876
-0.370104, 0.384934, -1.47169
-0.365801, 0.0532454, -1.41524
-0.360852, 0.0316204, -1.4007
-0.361741, 0.0260013, -1.39468
-0.361399, -0.0675858, -1.39742
-0.361399, -0.0675858, -1.39742
-0.363496, -0.119232, -1.398
-0.361463, -0.117218, -1.39116
-0.384798, -0.192096, -1.47931
-0.365148, -0.0169926, -1.39961
-0.358899, 0.166962, -1.37366
-0.358899, 0.166962, -1.37366
-0.367359, 0.0652119, -1.39106
-0.364313, 0.0658197, -1.38244
-0.359675, 0.143834, -1.34626
-0.365226, 0.0773412, -1.35907
-0.371213, 0.00492794, -1.37124
-0.367558, -0.0973328, -1.3504
-0.368876, -0.0984082, -1.36471
-0.370039, -0.0287632, -1.36099
-0.40711, -0.211173, -1.48457
-0.38245, 0.250505, -1.41971
-0.411003, -0.239133, -1.4888
-0.383277, -0.132679, -1.38685
-0.365527, 0.366572, -1.35826
-0.373412, 0.0241145, -1.35799
-0.373998, -0.00136704, -1.35619
-0.37319, -0.0110022, -1.35374
-0.375291, 0.190338, -1.37278
-0.371989, 0.124861, -1.35273
-0.372869, -0.127624, -1.31576
-0.418064, -0.207093, -1.47701
-0.379358, 0.0212648, -1.31888
-0.383775, -0.0665576, -1.32581
-0.383775, -0.0665576, -1.32581
-0.395974, 0.295846, -1.39355
-0.402415, 0.24479, -1.41154
-0.371788, 0.161899, -1.29663
-0.403217, 0.30829, -1.38523
-0.460328, 0.355234, -1.46517
-0.391566, 0.0285792, -1.23289
-0.407043, 0.0319903, -1.2641
-0.397656, 0.0217899, -1.23187
-0.397133, 0.0182776, -1.2297
-0.397133, 0.0182776, -1.2297
-0.411274, 0.0100502, -1.27089
-0.411274, 0.0100502, -1.27089
-0.400875, 0.243174, -1.1898
-0.401617, 0.24594, -1.18574
-0.404818, 0.255013, -1.19027
0.531043, 0.000338064, -2.03277
0.542108, -0.269107, -2.08423
0.513259, 0.0712176, -2.0293
0.488619, -0.132641, -2.02753
0.4328, 0.191115, -1.99911
0.412852, -0.172443, -1.99651
0.39927, 0.030456, -1.949
0.398235, -0.0420782, -1.99996
0.256376, -0.344117, -1.63663
0.307866, 0.196466, -2.00411
0.284333, 0.0318088, -1.98052
0.230508, -0.115302, -1.61944
0.231753, -0.134209, -1.64053
0.230267, 0.198434, -1.65877
0.228392, -0.296807, -1.66069
0.203164, 0.287446, -1.63569
0.178174, -0.0527673, -1.63832
0.178128, -0.32912, -1.60928
0.164048, -0.103393, -1.62913
0.164367, -0.312996, -1.63099
0.157452, 0.293707, -1.66819
0.131651, -0.188802, -1.56958
0.131651, -0.188802, -1.56958
0.135783, -0.0613327, -1.62188
0.11624, 0.0829362, -1.61969
0.120612, 0.140883, -1.89545
0.100788, 0.232161, -1.62342
0.0998448, -0.352014, -1.59909
0.114949, -0.189656, -1.89813
0.0944385, -0.217537, -1.62665
0.0849585, 0.0940419, -1.61336
0.0937215, -0.32208, -1.73855
0.0711799, 0.0956091, -1.61045
0.0301382, 0.23929, -1.59709
0.0284377, -0.311902, -1.89834
-0.00231883, -0.186617, -1.55661
-0.00355089, -0.183391, -1.56975
-0.0430609, -0.127773, -1.87926
-0.0640585, -0.0547797, -1.5612
-0.0688021, 0.221028, -1.56823
-0.0674731, 0.221084, -1.56962
-0.098964, -0.170313, -1.8482
-0.098376, 0.234579, -1.56023
-0.150037, 0.0247107, -1.86152
-0.149058, -0.000566214, -1.86146
-0.149691, -0.0115028, -1.86144
-0.139309, 0.241654, -1.5473
-0.140263, 0.223667, -1.55641
-0.158283, 0.215271, -1.5376
-0.173355, -0.0500466, -1.52458
-0.206787, 0.13249, -1.82669
-0.210661, -0.204027, -1.81807
-0.210661, -0.204027, -1.81807
-0.225829, 0.357234, -1.55729
-0.223211, -0.0666552, -1.51567
-0.230593, -0.177263, -1.50252
-0.222269, 0.362954, -1.47379
-0.243733, -0.0645705, -1.52764
-0.298498, -0.200025, -1.48014
-0.305845, 0.099919, -1.4907
-0.306391, -0.0749567, -1.47593
-0.313543, -0.0634096, -1.49379
-0.310466, 0.0954635, -1.49003
-0.128208, -0.0504466, -0.599973
-0.128208, -0.0504466, -0.599973
-0.322808, -0.0541279, -1.49022
-0.302811, 0.353076, -1.41358
-0.136983, -0.0777571, -0.63736
-0.366337, -0.160203, -1.63847
-0.332765, 0.201827, -1.50366
-0.323878, 0.327703, -1.42686
-0.351921, -0.0809521, -1.47748
-0.350055, -0.0656131, -1.44348
-0.351671, -0.112147, -1.44722
-0.350546, -0.110005, -1.4396
-0.369099, -0.196747, -1.48915
-0.354904, 0.0165784, -1.43452
-0.361274, 0.0143469, -1.45567
-0.358096, -0.0834738, -1.44213
-0.353381, -0.11298, -1.42331
-0.352075, -0.112543, -1.41731
-0.356375, 0.136794, -1.44493
-0.357039, -0.118836, -1.40801
-0.352703, 0.0505086, -1.39824
-0.357967, 0.0197569, -1.41509
-0.356869, -0.0194924, -1.40683
-0.364099, -0.0375871, -1.43281
-0.359245, -0.0873572, -1.41217
-0.363204, -0.0508218, -1.40026
-0.36566, -0.0520815, -1.40813
-0.361398, -0.122545, -1.39073
-0.359964, -0.134503, -1.38823
-0.372141, -0.14425, -1.43251
-0.377832, 0.383093, -1.48419
-0.361438, -0.0970378, -1.39247
-0.362014, -0.0980007, -1.39792
-0.383463, 0.244358, -1.47036
-0.368954, -0.073866, -1.38707
-0.366098, -0.117327, -1.37747
-0.367278, -0.118042, -1.38056
-0.364444, -0.130396, -1.37446
-0.365093, -0.110994, -1.37695
-0.371878, -0.116956, -1.40391
-0.366311, 0.0768007, -1.37532
-0.367954, 0.0947815, -1.3702
-0.374584, -0.0249392, -1.38223
-0.368044, -0.0513221, -1.35695
-0.371085, -0.0534177, -1.36849
-0.367835, -0.0686254, -1.35471
-0.370757, -0.07114, -1.36824
-0.371957, -0.0899317, -1.37516
-0.373274, -0.0948731, -1.36979
-0.375649, 0.0783331, -1.36073
-0.366439, 0.369332, -1.35041
-0.37776, 0.183573, -1.36471
-0.377597, -0.0477352, -1.33792
-0.380862, -0.0483186, -1.3452
-0.380303, -0.0603874, -1.35055
-0.376838, -0.0580128, -1.33582
-0.371566, -0.0757014, -1.31618
-0.377104, -0.0815653, -1.33758
-0.374415, -0.0943657, -1.32012
-0.369291, 0.134013, -1.32143
-0.378819, -0.00776175, -1.34114
-0.366707, 0.184104, -1.31419
-0.42891, -0.239648, -1.48726
-0.395398, 0.253831, -1.39871
-0.377173, -0.0880196, -1.30833
-0.37992, -0.0894548, -1.31459
-0.379342, -0.119928, -1.31313
-0.381131, -0.134194, -1.31587
-0.379337, -0.10101, -1.31251
-0.377698, -0.111495, -1.30511
-0.378687, -0.123308, -1.3071
-0.399754, 0.252562, -1.39904
-0.399754, 0.252562, -1.39904
-0.375597, -0.139357, -1.27637
-0.382854, -0.0905877, -1.30221
-0.383432, -0.0903492, -1.29885
-0.375116, -0.100771, -1.24082
-0.386329, 0.144167, -1.29445
-0.386484, 0.21259, -1.27076
-0.382785, 0.0274242, -1.23362
-0.384809, 0.0134114, -1.23362
-0.382397, 0.223227, -1.23661
-0.382397, 0.223227, -1.23661
-0.382587, 0.189866, -1.23465
-0.39402, 0.185077, -1.26026
-0.404989, 0.264306, -1.20534
0.591882, -0.0329736, -2.09383
0.591882, -0.0329736, -2.09383
0.538118, -0.0691921, -2.01556
0.491438, -0.214684, -2.00847
0.493159, -0.12299, -2.02594
0.382503, -0.112533, -1.98435
0.359783, -0.193532, -1.97167
0.350863, -0.196365, -1.98219
0.231242, -0.159817, -1.64027
0.223765, 0.355577, -1.65391
0.224471, 0.31978, -1.6671
0.207144, 0.033439, -1.64143
0.204252, 0.365508, -1.65631
0.186152, -0.220448, -1.61621
0.171304, 0.00513637, -1.63107
0.169282, 0.159587, -1.63651
0.156949, -0.353063, -1.61067
0.134697, 0.0865973, -1.62447
0.137293, -0.319237, -1.71187
0.135652, -0.315561, -1.69539
0.129881, -0.178778, -1.87733
0.0840872, 0.0888456, -1.61489
0.0626566, 0.0928491, -1.61299
0.0210027, -0.192466, -1.58354
0.0220212, -0.190484, -1.58168
0.0191961, 0.230349, -1.59379
-0.00521359, 0.103881, -1.59774
-0.0198162, -0.184403, -1.56299
-0.0646069, 0.181404, -1.87744
-0.164285, 0.0275698, -1.85804
-0.143135, -0.328255, -1.55339
-0.168287, 0.0769306, -1.53885
-0.213202, 0.193729, -1.83867
-0.211498, 0.165634, -1.81591
-0.237191, -0.188285, -1.80666
-0.20667, -0.334955, -1.54072
-0.291638, 0.035801, -1.78832
-0.291895, -0.0479097, -1.49601
-0.304429, 0.374768, -1.53066
-0.323359, 0.0220649, -1.58271
-0.316806, -0.219137, -1.52821
-0.312518, 0.376394, -1.52711
-0.310927, 0.36286, -1.51844
-0.292781, 0.373061, -1.42362
-0.30711, 0.227916, -1.48197
-0.311591, -0.0321567, -1.48649
-0.319034, 0.226902, -1.50544
-0.318324, 0.226212, -1.49882
-0.336358, 0.192134, -1.54446
-0.329018, 0.244506, -1.49723
-0.330288, 0.0840012, -1.49377
-0.326506, 0.0847341, -1.48002
-0.36493, -0.2077, -1.49774
-0.348432, 0.208721, -1.4387
-0.351585, 0.316869, -1.4155
-0.367958, 0.194772, -1.40281
-0.390208, 0.250789, -1.48086
-0.392614, 0.304488, -1.47776
-0.375824, 0.338127, -1.36962
-0.37985, 0.323067, -1.37346
-0.381637, 0.147552, -1.30403
-0.387913, -0.123844, -1.28752
-0.380382, 0.0567005, -1.25383
-0.378917, 0.0804501, -1.23363
-0.395708, 0.160114, -1.26048
-0.395654, 0.172511, -1.24295
-0.404149, 0.155229, -1.17551
0.695209, -0.00163477, -2.11402
0.642306, 0.116869, -2.0972
0.637181, 0.119549, -2.07606
0.553552, 0.0759253, -2.0429
0.533409, 0.230385, -2.03085
0.508748, -0.0966682, -2.0194
0.402861, 0.00578385, -2.01086
0.38938, -0.0964125, -1.99251
0.229608, -0.10463, -1.63875
0.232223, -0.336447, -1.64726
0.224239, 0.341163, -1.65835
0.206741, -0.269746, -1.62522
0.178517, -0.0940687, -1.62854
0.178387, -0.0944027, -1.62974
0.172372, 0.236369, -1.64406
0.172048, 0.211951, -1.64429
0.163441, 0.292116, -1.65377
0.15304, 0.0601202, -1.6522
0.147967, -0.350361, -1.60681
0.147967, -0.350361, -1.60681
0.126324, 0.202383, -1.66045
0.0271905, -0.058831, -1.58646
-0.0331987, 0.220038, -1.58109
-0.058227, 0.352681, -1.5373
-0.113644, 0.0848693, -1.55146
-0.155692, 0.0244527, -1.85938
-0.184937, 0.0850597, -1.53209
-0.186554, 0.0961563, -1.52548
-0.233755, -0.317168, -1.5372
-0.254291, -0.0508139, -1.48365
-0.30224, -0.192699, -1.47437
-0.337083, 0.198512, -1.52757
-0.329959, 0.386497, -1.50603
-0.360073, -0.150705, -1.45181
-0.356058, 0.210171, -1.43018
-0.392382, 0.277362, -1.40043
-0.402105, 0.163669, -1.20193
0.374313, -0.0490978, -1.98012
0.359491, 0.163646, -2.00001
0.309566, -0.00505642, -2.03187
0.302783, -0.00252873, -1.9775
0.229479, 0.136334, -1.65664
0.226589, 0.303485, -1.65723
0.195394, 0.346617, -1.65393
0.170322, -0.0723797, -1.62947
0.145172, -0.0724445, -1.62336
0.137345, -0.342271, -1.59677
0.000794659, 0.183051, -1.91557
-0.0411319, -0.196665, -1.56622
-0.151297, 0.135973, -1.83765
-0.210143, -0.178702, -1.50716
-0.21536, -0.32382, -1.53926
-0.228234, 0.212305, -1.51478
-0.288817, 0.225944, -1.47278
-0.301912, -0.0423323, -1.48844
-0.350815, 0.29669, -1.42478
-0.159688, -0.0523909, -0.633881
-0.350659, 0.196905, -1.37058
-0.396805, 0.281462, -1.39036
-0.399935, 0.263518, -1.40516
-0.399935, 0.263518, -1.40516
0.394143, 0.0348651, -2.01273
0.193485, -0.279329, -1.61738
0.16815, 0.34628, -1.67706
0.158891, 0.0494428, -1.63404
0.148154, -0.0817336, -1.61121
0.148749, -0.0827134, -1.62583
0.114161, -0.196643, -1.56518
0.000577411, -0.192919, -1.56595
-0.0326775, -0.175712, -1.53142
-0.385376, -0.180789, -1.4611
-0.403299, -0.201019, -1.48759
0.420195, -0.00273421, -2.00076
0.343917, 0.0403983, -2.00481
0.228708, 0.321844, -1.6758
0.209957, 0.263343, -1.65062
0.194286, 0.317624, -1.64639
0.194011, 0.285291, -1.64612
0.177631, 0.1486, -1.66271
0.158177, 0.183092, -1.64756
0.156796, -0.0961452, -1.62458
0.118011, 0.185595, -1.62126
-0.372883, 0.377376, -1.47092
-0.360594, 0.196378, -1.33678
-0.393489, 0.257905, -1.42464
0.211025, -0.00426085, -1.61737
0.195617, 0.166048, -1.6616
0.175947, 0.37064, -1.64722
0.174972, 0.334148, -1.65944
0.174646, -0.270515, -1.61474
0.15335, 0.201034, -1.69785
0.15335, 0.201034, -1.69785
-0.131578, 0.00317848, -1.85567
0.5929, 0.0389238, -2.1407
0.38668, -0.0963276, -1.96586
0.174219, -0.338321, -1.60648
0.158232, -0.314222, -1.69283
-0.362536, 0.245985, -1.50719
0.0734058, -0.212689, -1.67659
0.0778433, -0.22891, -1.75269
0.0888229, 0.0363232, -1.72006
0.0832151, 0.0434337, -1.64112
-0.0271914, 0.0357491, -1.67658
0.611147, -0.158618, -2.01491
0.63714, 0.123074, -2.07778
0.564109, -0.215012, -2.00586
0.534939, -0.154662, -2.02687
0.515151, -0.256967, -1.97374
0.527765, -0.151205, -2.02216
0.537479, 0.0826524, -2.0429
0.510486, -0.157733, -2.00905
0.518446, 0.0825871, -2.02429
0.487207, -0.214716, -2.00085
0.487382, -0.210112, -2.00887
0.488241, 0.063326, -2.02785
0.478293, -0.177222, -2.02952
0.46433, -0.110227, -2.00888
0.433719, -0.208841, -1.94151
0.452233, -0.0752463, -2.0011
0.450855, -0.105559, -2.00001
0.450855, -0.105559, -2.00001
0.464335, 0.193339, -2.03118
0.458103, 0.170599, -2.01296
0.43928, -0.153803, -1.99146
0.431347, -0.0841859, -2.00464
0.430524, -0.118278, -2.00779
0.430316, -0.184925, -2.02492
0.433924, 0.107318, -2.01829
0.430804, 0.220904, -2.01779
0.409554, 0.0420689, -1.99408
0.401109, -0.248913, -2.00202
0.400762, -0.0404969, -1.98788
0.395284, -0.203485, -1.9821
0.403252, -0.0258083, -2.01269
0.395093, 0.0735612, -2.00343
0.38172, 0.0490658, -1.99835
0.375804, -0.0650896, -1.98755
0.380481, 0.0329645, -1.99981
0.372087, -0.000295879, -2.01619
0.37268, 0.204927, -2.02516
0.343904, 0.144397, -1.99969
0.249478, -0.359567, -1.63804
0.232631, -0.364648, -1.65095
0.22392, -0.27783, -1.63158
0.223432, -0.2772, -1.62932
0.228077, -0.122758, -1.64204
0.219321, -0.254883, -1.62498
0.227513, -0.0251471, -1.6466
0.230116, 0.0819803, -1.65246
0.235807, 0.250858, -1.66271
0.22328, -0.0638096, -1.64464
0.225321, 0.10017, -1.65101
0.219845, -0.0651359, -1.64454
0.229011, 0.246496, -1.66418
0.220976, 0.0496118, -1.64752
0.225953, 0.198177, -1.65769
0.218, -0.023002, -1.64362
0.227289, 0.248449, -1.6631
0.220998, 0.0961568, -1.64882
0.210309, -0.12555, -1.63541
0.213667, 0.00616274, -1.64383
0.204941, -0.137996, -1.62971
0.21008, 0.0202761, -1.64323
0.214665, 0.203054, -1.65531
0.199508, -0.216833, -1.62023
0.199528, -0.0758328, -1.62893
0.202149, 0.00579281, -1.63425
0.203325, 0.0946215, -1.6425
0.206395, 0.289183, -1.65021
0.192437, -0.0582102, -1.63153
0.192626, -0.0581427, -1.63468
0.186082, -0.177752, -1.62458
0.17385, -0.348658, -1.59222
0.191982, 0.163326, -1.64405
0.176712, -0.335794, -1.61406
0.195448, 0.187789, -1.66954
0.174459, -0.328028, -1.61313
0.178457, -0.183165, -1.62607
0.17859, -0.149227, -1.62422
0.172669, -0.307346, -1.61403
0.183674, 0.148246, -1.6414
0.176316, -0.0531083, -1.62872
0.173842, -0.124329, -1.62481
0.179202, 0.116106, -1.63705
0.18306, 0.33674, -1.64637
0.177916, 0.233306, -1.64647
0.176903, 0.322056, -1.6579
0.176903, 0.322056, -1.6579
0.177486, 0.378506, -1.65842
0.165293, 0.00601395, -1.63559
0.172939, 0.348597, -1.64867
0.167517, 0.151004, -1.64099
0.168583, 0.170119, -1.64667
0.1591, -0.125245, -1.63731
0.167966, 0.312839, -1.65162
0.167884, 0.370469, -1.65258
0.165939, 0.31549, -1.65274
0.15201, -0.16941, -1.62664
0.15334, -0.046591, -1.624
0.143645, -0.198676, -1.61082
0.330817, 0.397165, -3.26764
0.129105, -0.313821, -1.60417
0.127846, -0.3204, -1.60793
0.147488, 0.372308, -1.64824
0.131211, -0.183195, -1.6136
0.131211, -0.183195, -1.6136
0.130093, -0.0720853, -1.62285
0.126244, -0.201043, -1.61278
0.124559, -0.188488, -1.61047
0.124072, -0.21272, -1.61281
0.124232, -0.181409, -1.61097
0.16478, 0.229185, -1.94904
0.139871, -0.313792, -1.90843
0.122778, 0.33525, -1.63984
0.144241, 0.000500185, -1.92868
0.136888, -0.149313, -1.91598
0.1181, 0.38116, -1.63896
0.101367, -0.185235, -1.60365
0.124092, 0.341459, -1.77594
0.107545, 0.0767484, -1.63111
0.126804, 0.202577, -1.91379
0.11862, 0.0712532, -1.91414
0.0826131, -0.320437, -1.59236
0.0876663, 0.365537, -1.63148
0.0722625, -0.0957295, -1.90164
0.0802814, 0.323624, -1.93108
0.0478472, -0.334611, -1.57658
0.0674295, 0.212242, -1.80175
0.0720465, 0.072711, -1.90882
0.0717546, 0.0683251, -1.90991
0.0610589, 0.03485, -1.85023
0.0557963, -0.289229, -1.89343
0.0412072, -0.194104, -1.58144
0.0562085, 0.0135251, -1.91671
0.0521624, -0.292447, -1.9195
0.0502356, -0.272185, -1.91691
0.0572561, 0.184669, -1.91943
0.0505873, 0.0795901, -1.90298
0.0490506, 0.239354, -1.91362
0.0481549, 0.215696, -1.91468
0.0415713, 0.34143, -1.62676
0.032782, 0.0924408, -1.59613
0.0304541, 0.0579479, -1.91183
0.013814, -0.189904, -1.57541
0.0299051, 0.33682, -1.9056
-0.0100263, -0.13558, -1.89081
-0.0433566, -0.133627, -1.88199
-0.0489091, 0.165629, -1.89206
-0.054973, -0.0458016, -1.56848
-0.0617951, -0.0629779, -1.56382
-0.0745876, 0.320344, -1.84465
-0.0656728, 0.216999, -1.57858
-0.102705, -0.313711, -1.53618
-0.112235, 0.339461, -1.85287
-0.112277, 0.342211, -1.86648
-0.119834, -0.125034, -1.86382
-0.117005, 0.334907, -1.86591
-0.122507, -0.121376, -1.86163
-0.123922, 0.187946, -1.87586
-0.123789, 0.187866, -1.8755
-0.127421, -0.117658, -1.85029
-0.107864, 0.353794, -1.58396
-0.133361, 0.352279, -1.8388
-0.135761, -0.193304, -1.48262
-0.182988, 0.0878118, -1.53191
-0.185805, -0.188849, -1.51635
-0.222082, 0.0827266, -1.82254
-0.229798, -0.253585, -1.83755
-0.244765, 0.161589, -1.81998
-0.249258, 0.161829, -1.81862
-0.252209, -0.267235, -1.81731
-0.223932, 0.0885476, -1.51726
-0.26984, 0.0802077, -1.80936
-0.274104, 0.349737, -1.81766
-0.23938, 0.0806818, -1.51809
-0.287058, 0.176239, -1.80571
-0.282306, -0.307019, -1.7527
-0.291691, 0.0432518, -1.8042
-0.246306, -0.0688005, -1.50726
-0.450613, -0.582918, -2.71577
-0.252333, -0.201518, -1.50217
-0.301814, 0.338555, -1.82468
-0.301858, -0.136206, -1.79801
-0.308259, 0.231078, -1.80511
-0.307967, 0.0704926, -1.78228
-0.319075, 0.0461453, -1.79606
-0.323485, 0.222506, -1.80068
-0.315613, 0.344479, -1.67474
-0.339449, -0.0930899, -1.78348
-0.339449, -0.0930899, -1.78348
-0.342831, 0.195, -1.7991
-0.294796, 0.231759, -1.51064
-0.124653, -0.0734603, -0.622946
-0.305246, 0.367862, -1.5342
-0.357899, -0.164236, -1.77422
-0.303992, -0.317777, -1.47136
-0.306307, -0.295825, -1.47131
-0.31002, -0.174574, -1.47918
-0.323694, 0.370124, -1.53988
-0.322104, 0.21174, -1.53029
-0.312072, 0.0890953, -1.49078
-0.313106, -0.1995, -1.47569
-0.129877, -0.0617205, -0.608195
-0.319395, -0.166576, -1.48487
-0.317757, -0.192549, -1.46986
-0.325672, -0.15735, -1.48855
-0.336686, 0.375939, -1.53481
-0.325767, -0.162011, -1.47474
-0.32496, -0.172851, -1.47708
-0.13989, -0.0333067, -0.628544
-0.329631, -0.164353, -1.47533
-0.341442, 0.363048, -1.52574
-0.326437, 0.0943042, -1.46843
-0.337249, 0.215413, -1.5023
-0.138174, -0.0513736, -0.613381
-0.340928, 0.238824, -1.50057
-0.342527, -0.174505, -1.48046
-0.343835, -0.160535, -1.47158
-0.345778, -0.167748, -1.46441
-0.345802, -0.16775, -1.46422
-0.339167, -0.338865, -1.40998
-0.367403, 0.334062, -1.50736
-0.365656, 0.337156, -1.4968
-0.157586, -0.0336475, -0.624396
-0.169715, -0.0822914, -0.673964
-0.359527, -0.284475, -1.39034
-0.163741, -0.0741375, -0.639778
-0.363825, -0.305824, -1.38741
-0.156687, -0.0569107, -0.609284
-0.389152, 0.293985, -1.47224
-0.399657, 0.304589, -1.49069
-0.371829, 0.129981, -1.36275
-0.408611, 0.298831, -1.47612
-0.41851, 0.256109, -1.49005
-0.414161, 0.27746, -1.47582
-0.166989, -0.0557315, -0.604935
-0.395913, -0.344583, -1.3827
-0.419845, 0.304911, -1.47773
-0.424967, 0.286882, -1.47201
-0.420746, -0.17639, -1.44209
-0.406907, -0.27783, -1.38689
-0.404972, -0.303546, -1.37666
-0.422188, -0.220741, -1.43943
-0.38056, -0.119651, -1.29613
-0.413894, -0.342649, -1.37811
-0.177213, -0.037016, -0.609469
-0.373756, 0.0521804, -1.23771
-0.377997, 0.0549278, -1.23927
-0.191726, -0.0743462, -0.64488
-0.383084, 0.0455106, -1.23612
-0.392679, 0.193738, -1.26796
-0.38414, 0.0501673, -1.23549
-0.391344, 0.05425, -1.23755
-0.181286, -0.0471064, -0.596898
-0.189992, -0.0310302, -0.602394
-0.188543, -0.0359566, -0.59763
-0.186918, -0.0440302, -0.588174
-0.186591, -0.0457217, -0.585579
-0.187833, -0.0431372, -0.587642
-0.190148, -0.0368059, -0.593325
-0.187538, -0.0450332, -0.585234
-0.197627, -0.098079, -0.601317
-0.198911, -0.0979645, -0.601057
-0.199943, -0.0984314, -0.600799
-0.193612, -0.0390468, -0.581238
0.67505, -0.00135859, -2.08662
0.607559, -0.168356, -2.05511
0.592783, -0.00876999, -2.04077
0.587267, -0.163579, -2.08144
0.54916, -0.194253, -2.01718
0.530342, -0.229961, -1.96979
0.541152, -0.213248, -2.02234
0.549596, -0.151098, -2.05649
0.534176, -0.152044, -2.02533
0.539494, 0.0725868, -2.03629
0.538855, 0.0436816, -2.04013
0.511105, -0.11761, -1.96837
0.520154, -0.118851, -2.00395
0.504718, 0.0783377, -1.95557
0.50686, 0.134703, -1.96096
0.521817, 0.10542, -2.01097
0.507921, -0.16021, -2.04428
0.500477, -0.165078, -2.00741
0.503662, 0.00238445, -2.02098
0.507438, 0.00996096, -2.05227
0.496545, 0.0517164, -2.02412
0.487333, -0.150558, -2.01813
0.487986, -0.122831, -2.0414
0.482223, 0.000138519, -2.02377
0.473898, -0.117685, -2.01202
0.483643, 0.176815, -2.04324
0.465115, -0.0723883, -2.01552
0.449041, -0.201397, -1.98836
0.457859, -0.0692521, -2.01258
0.460838, 0.204275, -2.01975
0.458984, 0.12953, -2.02321
0.458422, 0.145209, -2.02238
0.434029, -0.185144, -2.00382
0.432788, -0.117857, -2.00497
0.429947, 0.107314, -2.01663
0.430685, 0.197177, -2.01335
0.430899, 0.197158, -2.01262
0.419795, 0.225605, -2.01886
0.374095, -0.0313193, -1.99642
0.362417, -0.133827, -1.99064
0.357343, -0.0560163, -2.01028
0.22784, -0.163182, -1.63764
0.227088, -0.0350094, -1.64529
0.225018, 0.0319323, -1.64819
0.224001, 0.0672688, -1.65729
0.214189, -0.126503, -1.62955
0.20219, -0.347964, -1.60121
0.223017, 0.238958, -1.65267
0.214851, 0.0637317, -1.63995
