-0.218093, -0.058837, -1.51366
0.0245305, 0.0738181, -1.59594
-0.370313, -0.0405632, -1.33356
0.141666, 0.348883, -1.64386
-0.0343544, -0.4053, -2.4159
-0.0320334, -0.400191, -2.2982
-0.388531, -0.344091, -1.36977
-0.18502, -0.3389, -1.51307
-0.380338, -0.317671, -1.38005
-0.383986, -0.316513, -1.37941
-0.31918, -0.295719, -1.47234
0.119632, -0.318614, -1.59849
0.119642, -0.318509, -1.59843
-0.245098, -0.230225, -1.83887
-0.304665, -0.219669, -1.78585
-0.380688, -0.241812, -1.51229
-0.223763, -0.207367, -1.5165
-0.167221, -0.207797, -1.5322
0.562814, 0.0583814, -2.06548
-0.323809, -0.072758, -1.48145
0.105179, 0.111498, -1.91325
0.166404, 0.151727, -1.96141
0.0969432, 0.196925, -1.93539
-0.0101087, 0.354912, -1.60004
-0.039902, 0.35613, -1.59711
0.0279288, -0.223239, -1.89631
-0.377588, -0.24174, -1.47996
0.105677, -0.194596, -1.60308
0.0299767, -0.193091, -1.58132
0.0253949, -0.0593996, -1.58304
0.150494, -0.0208308, -1.65186
0.60489, 0.140809, -2.08062
-0.326555, -0.0534835, -1.4715
0.0892365, 0.142207, -1.94279
0.158716, 0.0382688, -1.68065
0.126268, 0.332075, -1.86385
0.191162, 0.339498, -1.64684
-0.378629, 0.0246161, -1.24182
0.0720555, 0.356834, -1.61412
0.211072, -0.250419, -1.62858
-0.24149, -0.0254846, -1.83542
-0.301255, -0.32476, -1.4815
-0.354153, -0.221618, -1.46456
-0.272254, -0.191896, -1.48874
0.217266, -0.104806, -1.64347
-0.0361302, 0.229869, -1.58506
0.00280818, -0.193019, -1.57461
0.213517, 0.385622, -1.6567
0.18106, 0.385928, -1.64704
0.551921, 0.145232, -2.05388
-0.283343, -0.0390726, -1.50333
0.0159408, -0.173089, -1.57377
0.166732, -0.146476, -1.65715
0.121539, 0.387537, -1.75045
0.10407, -0.178172, -1.90395
0.151849, -0.093016, -1.64214
0.206665, 0.301097, -1.65251
0.533197, 0.213606, -2.06067
0.225634, 0.0310501, -1.64962
0.225634, 0.0310501, -1.64962
0.228096, -0.0369449, -1.64715
0.221967, -0.149864, -1.63522
0.221298, 0.11556, -1.65968
0.220864, -0.0331331, -1.65227
0.225308, -0.156204, -1.65491
0.214177, -0.154904, -1.63848
0.193368, 0.163917, -1.64613
0.153184, -0.182541, -1.57571
0.173189, 0.27489, -1.64109
0.158573, 0.201241, -1.62997
0.166198, 0.281742, -1.65073
0.141487, 0.234839, -1.63464
0.157837, 0.0512363, -1.65872
0.124082, 0.220494, -1.6264
0.0982035, -0.164446, -1.56887
0.362924, 0.0513142, -2.00548
0.121459, 0.201533, -1.63939
0.156991, -0.164774, -1.66904
0.35142, 0.195859, -2.01897
0.0978309, 0.0692617, -1.62354
0.201577, 0.341645, -1.84621
0.07256, -0.331152, -1.58671
0.07256, -0.331152, -1.58671
0.281698, -0.0153869, -2.00839
0.0340034, -0.179319, -1.54941
0.0450833, 0.212583, -1.60857
0.0256618, -0.164368, -1.55975
0.020174, -0.194107, -1.54875
0.0398058, -0.175174, -1.58977
0.12169, -0.30368, -1.73374
0.021031, -0.1902, -1.58046
0.200791, 0.245092, -1.97543
0.191662, 0.201061, -1.96069
0.00304191, -0.202979, -1.58216
-0.00901331, -0.0388407, -1.58421
-0.0181302, 0.227632, -1.58511
-0.00985811, -0.194446, -1.57759
0.0225942, 0.338757, -1.75365
-0.0399572, -0.194217, -1.56699
0.02126, -0.326952, -1.70808
-0.0477675, -0.191811, -1.55677
0.0032468, 0.339566, -1.74133
-0.0599955, 0.213119, -1.58018
0.0018745, -0.298962, -1.6864
-0.00327656, 0.341293, -1.738
0.00671239, 0.335658, -1.76504
-0.081042, 0.20172, -1.55662
0.0618853, -0.190143, -1.90058
0.0695817, -0.128771, -1.92273
0.0695817, -0.128771, -1.92273
0.057522, -0.209374, -1.89527
0.0466739, 0.0839645, -1.9054
0.0389461, -0.187947, -1.91407
0.0281373, 0.0537818, -1.91893
-0.102651, -0.19844, -1.5324
-0.113581, 0.0927365, -1.55344
-0.116383, 0.199998, -1.56269
-0.00880245, 0.0223444, -1.88761
-0.126002, 0.088089, -1.55102
-0.127712, -0.198855, -1.52637
-0.130265, 0.0862278, -1.54791
-0.141459, 0.222492, -1.54727
-0.0441457, -0.322744, -1.83208
-0.0506078, -0.0389429, -1.90819
-0.154037, 0.21328, -1.55582
-0.158727, 0.228038, -1.54889
-0.0770603, -0.0188828, -1.87262
-0.0819973, 0.228807, -1.8842
-0.162776, -0.206431, -1.53543
-0.168059, -0.0478203, -1.53161
-0.175153, 0.0776273, -1.53551
-0.177791, -0.20112, -1.50416
-0.175293, -0.203046, -1.51595
-0.201339, 0.237598, -1.53045
-0.208354, 0.210511, -1.54089
-0.224023, 0.197381, -1.52458
-0.227317, 0.200935, -1.51196
-0.223538, 0.208785, -1.53732
-0.224149, -0.069539, -1.50977
-0.214127, -0.27688, -1.58727
-0.236276, 0.19701, -1.52458
-0.243981, -0.0694482, -1.503
-0.213763, 0.237942, -1.83045
-0.208639, 0.0835026, -1.84434
-0.251353, 0.202972, -1.53128
-0.260878, -0.296415, -1.49325
-0.236896, -0.170251, -1.83086
-0.23735, -0.234866, -1.82317
-0.270015, -0.0466229, -1.50055
-0.253693, -0.185679, -1.78733
-0.280067, -0.195229, -1.47119
-0.279343, -0.0624932, -1.50442
-0.269045, -0.135678, -1.78453
-0.288086, -0.0376299, -1.48718
-0.288179, -0.193614, -1.49848
-0.307094, -0.182722, -1.45129
-0.309017, -0.191122, -1.44926
-0.310844, -0.151232, -1.47258
-0.314113, -0.0701219, -1.4917
-0.316367, 0.0734093, -1.50212
-0.317323, -0.183562, -1.44363
-0.326343, 0.104443, -1.48508
-0.32366, -0.18534, -1.44084
-0.327198, -0.0441591, -1.47382
-0.331445, 0.0244263, -1.59026
-0.329534, -0.193655, -1.43779
-0.3347, -0.281034, -1.53839
-0.333347, -0.0325126, -1.47975
-0.338057, -0.270808, -1.54823
-0.34419, -0.279356, -1.55031
-0.343939, 0.0974185, -1.46313
-0.343939, 0.0974185, -1.46313
-0.34911, 0.19293, -1.45026
-0.34408, -0.136552, -1.41187
-0.350299, 0.105341, -1.4359
-0.349561, -0.00181681, -1.41656
-0.352694, 0.109123, -1.43215
-0.352694, 0.109123, -1.43215
-0.355393, 0.0121083, -1.38748
-0.357891, 0.0673818, -1.39263
-0.359397, 0.127267, -1.39743
-0.358221, 0.0683974, -1.39245
-0.357351, 0.0242759, -1.38893
-0.355046, -0.0734353, -1.37201
-0.357281, 0.00183466, -1.38364
-0.358051, -0.0237978, -1.37832
-0.366168, -0.234312, -1.4571
-0.360792, 0.164782, -1.38239
-0.361393, 0.15851, -1.3837
-0.361366, 0.0942257, -1.37956
-0.360186, 0.0282529, -1.37404
-0.360186, 0.0282529, -1.37404
-0.359666, -0.00989789, -1.3668
-0.358909, -0.0648399, -1.35715
-0.361737, 0.0202635, -1.37158
-0.360593, -0.124768, -1.35049
-0.362145, -0.0328498, -1.36421
-0.361871, -0.105321, -1.3549
-0.363492, 0.0740992, -1.35914
-0.363492, 0.0740992, -1.35914
-0.364911, 0.100898, -1.36422
-0.363393, 0.0284168, -1.35568
-0.365186, 0.101573, -1.36288
-0.363751, 0.0266039, -1.35643
-0.363684, 0.0229784, -1.35586
-0.365788, 0.10029, -1.3616
-0.365528, 0.0686692, -1.36048
-0.366614, 0.077204, -1.34532
-0.367837, 0.084075, -1.3418
-0.369587, 0.0404263, -1.32391
-0.370551, 0.0556679, -1.32595
-0.371192, 0.085087, -1.3252
-0.371832, 0.113181, -1.32775
-0.37143, 0.0766496, -1.32448
-0.371179, 0.0282092, -1.32198
-0.372144, 0.029077, -1.32029
-0.373607, 0.0768195, -1.32508
-0.373607, 0.0768195, -1.32508
-0.371692, -0.0322925, -1.31486
-0.372737, -0.00665249, -1.31862
-0.372737, -0.00665249, -1.31862
-0.371327, -0.096884, -1.3087
-0.37444, 0.117705, -1.3114
-0.375109, -0.13764, -1.29705
-0.376558, -0.108165, -1.27968
-0.377484, -0.143037, -1.28033
-0.371981, 0.0365543, -1.2356
-0.373532, 0.0446608, -1.23536
-0.374264, 0.00238895, -1.23249
-0.376335, 0.0747096, -1.23678
-0.382375, -0.107282, -1.26474
-0.377045, 0.0679119, -1.23842
-0.383639, -0.0458548, -1.26733
-0.381761, 0.039545, -1.23377
-0.382097, 0.0245658, -1.23225
-0.382115, 0.0245543, -1.23235
-0.382529, 0.0144808, -1.23296
-0.383864, 0.0463871, -1.23441
-0.388506, -0.117061, -1.25085
-0.383695, 0.0225099, -1.23224
-0.391029, -0.0533294, -1.26209
-0.391029, -0.0533294, -1.26209
-0.385515, 0.0495904, -1.23278
-0.38521, 0.02282, -1.23171
-0.385619, 0.00407009, -1.23226
-0.385609, 0.0297987, -1.22993
-0.386453, 0.0501962, -1.23247
-0.386745, 0.0371506, -1.23187
-0.387304, 0.0553467, -1.23254
-0.389626, -0.0977885, -1.23487
-0.388793, 0.0718362, -1.23271
-0.389847, 0.0741022, -1.23236
-0.390316, 0.0207781, -1.2306
-0.390826, 0.0419885, -1.23106
-0.392715, 0.0115246, -1.22957
-0.392715, 0.0115246, -1.22957
-0.394296, 0.0421225, -1.23053
-0.394144, 0.0161583, -1.22938
-0.395135, -0.00447349, -1.22537
-0.396751, -0.0238863, -1.22368
-0.394605, 0.00685111, -1.20564
0.229726, -0.215535, -1.63082
0.236885, -0.038623, -1.66269
0.224468, 0.100301, -1.65808
0.224468, 0.100301, -1.65808
0.191733, -0.163485, -1.63171
0.185832, 0.217991, -1.66379
0.16044, 0.291023, -1.63988
0.166973, -0.0101815, -1.63276
0.147999, 0.234792, -1.62954
0.157884, 0.0389498, -1.64012
0.131821, 0.0768498, -1.62753
0.135265, -0.340637, -1.6031
0.119797, 0.0866822, -1.62158
0.114895, 0.204656, -1.62337
0.113599, 0.212298, -1.62745
0.135239, -0.224253, -1.63615
0.0973543, -0.0790446, -1.61714
0.0973543, -0.0790446, -1.61714
0.0957767, 0.205313, -1.63652
0.184328, 0.0104927, -1.83116
0.0626923, 0.24894, -1.64237
0.0404995, -0.325025, -1.58184
0.189376, -0.128653, -1.90765
0.189694, 0.0186704, -1.93464
-0.00932668, 0.232625, -1.59052
0.0758691, -0.331051, -1.73131
0.123484, -0.0190329, -1.91103
0.0289267, 0.352564, -1.74296
0.108555, -0.152281, -1.90443
-0.0573442, -0.0741179, -1.56199
0.0515987, -0.31075, -1.81591
-0.0917919, 0.22368, -1.57021
-0.0371415, 0.335054, -1.75506
-0.0441986, 0.333508, -1.74413
0.0185705, -0.18336, -1.90309
-0.109655, 0.201775, -1.57224
-0.122144, -0.158599, -1.52783
-0.145113, 0.218302, -1.52099
-0.0287455, -0.127276, -1.90859
-0.0561398, -0.0360572, -1.82696
-0.146621, 0.22948, -1.549
-0.171438, 0.0929915, -1.53621
-0.174902, 0.0727272, -1.5648
-0.189986, 0.229849, -1.53613
-0.188265, -0.20081, -1.52641
-0.199062, 0.238216, -1.53144
-0.242962, -0.187931, -1.47482
-0.227833, -0.322297, -1.62785
-0.249418, -0.301794, -1.56752
-0.269834, 0.217806, -1.5253
-0.2703, 0.215902, -1.5221
-0.25629, 0.277435, -1.845
-0.261213, 0.266498, -1.79366
-0.269665, 0.0609593, -1.81025
-0.30156, 0.0793111, -1.50822
-0.30814, -0.0689727, -1.49154
-0.308638, -0.285224, -1.55617
-0.312853, -0.06781, -1.49832
-0.323068, -0.0756178, -1.46924
-0.322824, -0.145725, -1.46045
-0.324508, -0.202874, -1.45185
-0.329166, 0.0325931, -1.58928
-0.325493, -0.152502, -1.4612
-0.33895, -0.299297, -1.61183
-0.343231, -0.170227, -1.45663
-0.35126, -0.277074, -1.53882
-0.348816, 0.128926, -1.45285
-0.347515, 0.0572361, -1.44333
-0.353385, 0.158009, -1.42174
-0.361044, 0.0852945, -1.37958
-0.360885, 0.059887, -1.37688
-0.360228, 0.01835, -1.37282
-0.360228, 0.01835, -1.37282
-0.361795, 0.0923411, -1.37652
-0.362751, -0.114205, -1.33894
-0.366349, 0.0466143, -1.35172
-0.36901, 0.101501, -1.34588
-0.367738, 0.0346576, -1.33878
-0.372992, 0.0579738, -1.32503
-0.372614, 0.0278935, -1.32093
-0.371512, -0.128985, -1.30767
-0.372656, -0.140272, -1.30946
-0.374999, 0.122246, -1.31064
-0.375828, -0.125853, -1.2932
-0.380131, -0.134765, -1.27981
-0.37438, 0.0465267, -1.23817
-0.381131, -0.060352, -1.267
-0.381131, -0.060352, -1.267
-0.374347, -0.0137644, -1.23229
-0.382103, -0.0889133, -1.26498
-0.382103, -0.0889133, -1.26498
-0.382114, -0.107701, -1.26244
-0.376684, 0.0730733, -1.23708
-0.38283, -0.0907186, -1.26494
-0.378691, 0.0625762, -1.23475
-0.379183, 0.086235, -1.23554
-0.378529, 0.0112395, -1.23298
-0.383965, -0.0795923, -1.25186
-0.381238, 0.0674163, -1.23475
-0.381518, 0.0728509, -1.23427
-0.380825, -0.0173453, -1.23128
-0.385532, -0.0776708, -1.25056
-0.385726, -0.0798422, -1.25071
-0.385589, -0.0786844, -1.24998
-0.382831, 0.0769613, -1.23578
-0.38706, -0.0932076, -1.24917
-0.383452, 0.037112, -1.23328
-0.383335, 0.0371334, -1.2331
-0.384253, 0.0726469, -1.2353
-0.384194, 0.0391303, -1.23301
-0.384194, 0.0391303, -1.23301
-0.385128, 0.0563103, -1.22943
-0.385742, 0.0473899, -1.23206
-0.387292, 0.0457557, -1.23227
-0.38891, -0.0790792, -1.23667
-0.38917, -0.093611, -1.23605
-0.389807, -0.107111, -1.235
-0.388819, 0.0371753, -1.23162
-0.390231, -0.0721023, -1.23441
-0.39003, 0.0612081, -1.2329
-0.389711, -0.0135738, -1.23029
-0.390672, 0.0734602, -1.23229
-0.391196, 0.047028, -1.23157
-0.391933, 0.0696497, -1.23178
-0.392222, 0.0165573, -1.22976
-0.391235, -0.00720904, -1.22496
-0.392236, -0.00396924, -1.22777
-0.393443, 0.053893, -1.23116
-0.393598, -0.00836483, -1.22709
-0.393825, 0.049006, -1.22787
-0.394762, -0.0206329, -1.22584
-0.395425, -0.0076339, -1.22634
-0.395827, -0.00293152, -1.22685
-0.398679, 0.0043674, -1.20633
0.216866, 0.0340983, -1.64741
0.204808, -0.0463725, -1.63566
0.204706, -0.249341, -1.62318
0.176919, 0.30472, -1.64177
0.156455, 0.30658, -1.63903
0.134037, -0.221682, -1.63209
0.095519, -0.202719, -1.5719
0.116769, -0.327771, -1.59331
0.113825, -0.0817383, -1.62266
0.10867, -0.0720075, -1.61731
0.0974674, 0.0944307, -1.61674
0.0931697, 0.0899673, -1.61021
0.0740177, -0.199836, -1.56646
0.0786117, -0.335683, -1.5927
0.0606304, 0.0963035, -1.60863
0.290085, -0.0349318, -2.00655
0.0611145, 0.0776491, -1.61304
0.0532088, 0.0832812, -1.60314
0.23875, 0.227107, -1.98051
0.0192982, -0.190618, -1.5471
0.0452562, -0.0755573, -1.60842
0.0452562, -0.0755573, -1.60842
0.240035, -0.208803, -1.96318
0.0253412, -0.200842, -1.56084
0.0323038, -0.189758, -1.59089
0.150428, -0.317768, -1.81258
0.202395, 0.0704184, -1.95409
0.0826357, 0.34629, -1.75491
0.160624, 0.070467, -1.93833
-0.0622729, 0.218973, -1.57277
-0.0638042, 0.225671, -1.57008
-0.0111977, 0.336949, -1.74024
0.0291176, -0.234629, -1.91255
-0.132841, -0.053864, -1.53995
-0.142722, 0.214311, -1.55535
-0.0333903, -0.130233, -1.90639
-0.148332, 0.0914503, -1.53593
-0.1176, -0.334725, -1.67466
-0.225469, 0.216983, -1.49705
-0.22745, -0.191316, -1.83037
-0.260294, -0.0464049, -1.50831
-0.23607, 0.0722752, -1.83917
-0.237633, -0.181803, -1.81021
-0.285232, 0.204527, -1.5238
-0.29052, 0.0986827, -1.49351
-0.296979, -0.192252, -1.46058
-0.296979, -0.192252, -1.46058
-0.302156, -0.188616, -1.45664
-0.303614, -0.181664, -1.45223
-0.306635, 0.0952257, -1.50689
-0.306454, -0.191401, -1.45776
-0.311321, 0.0704814, -1.5009
-0.310852, -0.190621, -1.44668
-0.314916, -0.0707463, -1.47294
-0.3262, 0.120289, -1.50619
-0.334088, -0.0542821, -1.4757
-0.342883, 0.116277, -1.46624
-0.348335, 0.087672, -1.44682
-0.348335, 0.087672, -1.44682
-0.372022, 0.0414372, -1.32357
-0.377225, -0.138539, -1.28337
-0.373593, 0.0731898, -1.23887
-0.37316, 0.0702706, -1.23681
-0.372735, -0.0161375, -1.23586
-0.379448, -0.0488318, -1.26556
-0.373992, 0.0804827, -1.2358
-0.374278, 0.0252826, -1.23754
-0.375324, 0.0863321, -1.23606
-0.375259, 0.0016072, -1.23244
-0.377313, 0.0696646, -1.23585
-0.377301, 0.0412588, -1.2349
-0.377534, 0.0352854, -1.23412
-0.378319, 0.0903017, -1.23541
-0.379466, 0.0596368, -1.23434
-0.380586, 0.0149812, -1.23524
-0.38123, 0.0355445, -1.23257
-0.388849, -0.0527924, -1.2603
-0.383163, 0.0672391, -1.234
-0.383113, 0.0077126, -1.23148
-0.384008, 0.0557605, -1.23369
-0.385056, 0.0359887, -1.23267
-0.391994, -0.044489, -1.25903
-0.386535, -0.0582234, -1.23553
-0.385784, -7.12201e-05, -1.2301
-0.386456, 0.0573952, -1.23127
-0.387048, 0.0668126, -1.23291
-0.389324, -0.0753333, -1.23472
-0.388315, 0.066317, -1.23286
-0.389764, -0.0940245, -1.23448
-0.388809, 0.0441906, -1.23183
-0.388121, -0.0144075, -1.22754
-0.389014, 0.0130663, -1.23061
-0.391028, 0.0695289, -1.23247
-0.389975, -0.013667, -1.22697
-0.391535, 0.0108338, -1.229
-0.391528, -0.0138033, -1.22833
-0.392499, 0.0651137, -1.2317
-0.392689, 0.0451804, -1.23084
-0.392177, 0.00883991, -1.22837
-0.392688, 0.0436198, -1.23063
-0.391688, -0.00534142, -1.22611
-0.392239, -0.0149159, -1.22791
-0.393435, 0.015021, -1.22997
-0.392221, -0.00654915, -1.22541
-0.393363, 0.0037093, -1.22901
-0.393036, -0.0111521, -1.22671
-0.393036, -0.0111521, -1.22671
-0.393434, 0.054336, -1.2269
-0.393736, 0.00454487, -1.22715
-0.393493, -0.00321332, -1.22572
-0.393918, 0.00221504, -1.22686
-0.393745, -0.0182639, -1.22627
-0.394973, -0.00715218, -1.2282
-0.394374, -0.0160305, -1.22502
-0.394619, 0.00122857, -1.22558
-0.39604, 0.0427718, -1.2271
-0.395915, -0.0085177, -1.22474
-0.399046, 0.000452602, -1.20444
0.199289, -0.232904, -1.61758
0.167082, 0.272225, -1.63913
0.160063, -0.167717, -1.65352
0.13106, -0.208134, -1.60635
0.11062, -0.199386, -1.59352
0.220849, -0.315295, -1.77379
0.104242, -0.0550692, -1.61264
0.135043, -0.313176, -1.64103
0.095719, -0.070655, -1.6103
0.0868157, 0.0948677, -1.61559
0.0832084, -0.207496, -1.61264
0.0386501, 0.220295, -1.6031
0.0182138, -0.0498189, -1.57475
0.0858197, 0.341055, -1.76403
0.189444, 0.202448, -1.96041
0.114633, 0.0861394, -1.9114
0.00179267, 0.342741, -1.74167
0.0335869, 0.00934651, -1.91163
-0.101352, -0.0579024, -1.5487
-0.097833, -0.326677, -1.53994
0.0122789, 0.0684225, -1.90263
-0.00429765, 0.242933, -1.92253
-0.13118, -0.0280879, -1.55432
-0.139962, 0.096202, -1.5419
-0.180104, -0.196394, -1.50697
-0.185448, -0.0644451, -1.52966
-0.197558, 0.23459, -1.5336
-0.20944, 0.217707, -1.53384
-0.221409, -0.1938, -1.48845
-0.272307, 0.0916799, -1.50075
-0.266267, 0.0385727, -1.80941
-0.320559, -0.169777, -1.46944
-0.332424, 0.0178578, -1.59295
-0.344155, -0.0530685, -1.41755
-0.355754, 0.11365, -1.41344
-0.362895, 0.0964128, -1.37987
-0.361895, 0.0449807, -1.3711
-0.362125, 0.00080409, -1.37093
-0.361121, -0.0438347, -1.35628
-0.36132, -0.05414, -1.35877
-0.370146, 0.13455, -1.3476
-0.369288, 0.0256772, -1.3388
-0.368642, -0.0586278, -1.32994
-0.373125, -0.076566, -1.31272
-0.372467, -0.128816, -1.30741
-0.368553, 0.0526347, -1.2433
-0.370819, 0.0919815, -1.24068
-0.371212, 0.0389793, -1.23767
-0.379813, -0.10448, -1.2781
-0.379813, -0.10448, -1.2781
-0.373301, -0.0181809, -1.23575
-0.374211, 0.0792626, -1.23599
-0.37447, 0.0850802, -1.23664
-0.377315, 0.0827143, -1.2361
-0.384948, -0.0222212, -1.22872
-0.38601, 0.0281769, -1.23227
-0.388976, 0.0469915, -1.23192
-0.390384, -0.0200227, -1.22845
-0.390615, 0.0529516, -1.22415
-0.391939, 0.047706, -1.22818
-0.393291, 0.0504758, -1.22831
-0.393234, -0.0152651, -1.22467
-0.401962, -0.0432936, -1.25349
-0.3953, -0.0249134, -1.20521
-0.397478, -0.0241596, -1.20471
0.23237, -0.209102, -1.64109
0.113595, 0.0837467, -1.61924
0.175609, -0.29531, -1.6941
0.134373, -0.0897648, -1.64826
0.0910301, -0.161199, -1.57616
0.0868456, -0.188532, -1.58995
0.066431, 0.225939, -1.61402
0.0581981, 0.337565, -1.75824
0.0402099, 0.343188, -1.75174
-0.045427, -0.174306, -1.56567
-0.0680387, 0.199822, -1.59066
-0.0953457, 0.0791427, -1.55841
0.0409164, -0.200492, -1.92159
-0.108673, -0.0715806, -1.55617
-0.195858, -0.194506, -1.51942
-0.234755, 0.0881904, -1.51884
-0.222072, -0.286612, -1.59091
-0.264753, -0.0541748, -1.50149
-0.253419, -0.0232681, -1.80696
-0.285771, 0.00710533, -1.59185
-0.310339, 0.214156, -1.79225
-0.319821, -0.0610173, -1.46869
-0.32655, 0.20148, -1.53444
-0.325812, 0.0627342, -1.5205
-0.332207, 0.0590337, -1.50348
-0.347999, 0.174565, -1.45282
-0.344791, -0.0829898, -1.41498
-0.357786, 0.168367, -1.40725
-0.353201, -0.068074, -1.38586
-0.36238, 0.103276, -1.37929
-0.362755, 0.088916, -1.3811
-0.365743, 0.153466, -1.36662
-0.364811, 0.0653175, -1.35522
-0.368289, 0.113659, -1.34483
-0.367101, -0.101575, -1.31956
-0.367101, -0.101575, -1.31956
-0.36918, -0.121549, -1.318
-0.37074, -0.111099, -1.31088
-0.378441, -0.12377, -1.28252
-0.385555, -0.0723983, -1.25276
-0.386018, -0.088588, -1.24785
-0.388068, -0.0791101, -1.24896
0.201517, -0.0524713, -1.62879
0.16406, 0.31819, -1.65323
0.130669, -0.0645049, -1.61801
0.11617, 0.216191, -1.6255
0.0787058, -0.199094, -1.57005
0.33661, -0.0160491, -2.02193
0.150457, 0.334118, -1.74462
0.150457, 0.334118, -1.74462
0.0835315, 0.0750213, -1.6341
0.0396511, 0.0959035, -1.59998
0.180411, 0.0713489, -1.94061
0.0496604, 0.335016, -1.7602
-0.0935762, 0.040031, -1.42914
0.109303, 0.0578572, -1.9148
-0.0507415, 0.0766293, -1.57738
0.0254568, 0.0745946, -1.90285
-0.0743472, -0.14717, -1.87411
-0.14341, 0.234878, -1.86653
-0.201425, -0.0316649, -1.52984
-0.25761, 0.0785785, -1.51591
-0.280945, 0.218881, -1.52034
-0.314891, 0.00981722, -1.59645
-0.315021, -0.178473, -1.44326
-0.318278, -0.0743071, -1.48278
-0.317452, -0.193726, -1.44429
-0.324554, -0.161068, -1.4849
-0.362442, 0.149391, -1.38445
-0.359921, -0.0619824, -1.34988
-0.366026, 0.107533, -1.36165
-0.364669, 0.0301823, -1.35335
-0.36997, 0.120681, -1.35249
-0.368502, 0.103928, -1.34266
-0.369954, 0.0968317, -1.35136
-0.36845, 0.0259596, -1.3382
-0.367625, -0.0626983, -1.32713
-0.367813, -0.119325, -1.32725
-0.368127, -0.0681261, -1.33087
-0.367188, -0.109844, -1.32156
-0.372435, -0.0927804, -1.31555
-0.371573, -0.100471, -1.30815
-0.374455, -0.111805, -1.29374
-0.374455, -0.111805, -1.29374
-0.375369, -0.0623169, -1.29888
-0.375786, -0.108568, -1.29433
-0.378187, -0.117766, -1.27932
-0.385761, -0.118362, -1.25234
0.634896, -0.148077, -2.11613
0.130629, 0.0644719, -1.65807
0.0671873, -0.199839, -1.57422
0.0639167, 0.191441, -1.60351
0.127678, -0.303055, -1.7445
-0.228021, -0.196987, -1.48802
-0.308132, -0.15408, -1.47524
-0.315555, 0.204087, -1.51252
-0.328377, 0.116889, -1.49116
-0.328201, -0.195361, -1.44879
-0.327786, -0.199076, -1.43919
-0.368708, 0.0154662, -1.34003
-0.370249, -0.114606, -1.30142
0.0886278, -0.190919, -1.56107
0.23856, 0.22516, -1.98479
0.0618959, -0.146358, -1.90202
-0.198337, 0.0805093, -1.536
-0.214012, 0.213728, -1.53265
-0.240359, 0.0841356, -1.52411
-0.31459, 0.0300704, -1.62331
-0.31459, 0.0300704, -1.62331
-0.387591, -0.104376, -1.25168
-0.220197, 0.0859115, -1.54604
-0.335122, 0.0694659, -1.51
-0.0646624, -0.00762342, -1.86122
-0.0646511, -0.00904556, -1.87952
-0.373695, 0.0909608, -1.23324
0.00827547, -0.0666884, -1.57211
-0.0636967, -0.0669341, -1.54502
-0.329564, -0.167978, -1.45172
-0.294945, -0.0663383, -1.49194
-0.299493, 0.074017, -1.49799
0.105159, -0.138774, -1.56407
-0.0641399, -0.117174, -1.54128
-0.0641399, -0.117174, -1.54128
-0.25333, 0.0889266, -1.53258
0.232854, -0.119884, -1.64704
0.229578, -0.121759, -1.64582
0.181968, -0.196674, -1.61223
0.22233, 0.0207937, -1.64745
0.220506, 0.0206963, -1.64594
0.197553, -0.139435, -1.6339
0.179879, -0.174656, -1.62028
0.187134, -0.0580127, -1.62614
0.188683, -0.0757405, -1.63118
0.196405, -0.00624364, -1.63706
0.208384, 0.0885328, -1.6512
0.230329, 0.272139, -1.66592
0.22759, 0.274932, -1.66375
0.220603, 0.19796, -1.66187
0.224889, 0.259571, -1.66222
0.175825, 0.0964521, -1.6381
0.120754, -0.176455, -1.60437
0.186923, 0.209014, -1.65219
0.132686, -0.168106, -1.61796
0.139216, -0.0449957, -1.62165
0.194682, 0.304494, -1.65826
0.131245, -0.0569639, -1.61855
0.175312, 0.127058, -1.65545
0.127684, -0.0450913, -1.61813
0.153711, -0.160843, -1.64764
0.120992, -0.168798, -1.61552
0.119249, -0.0466391, -1.61499
0.134131, 0.095545, -1.62596
0.165591, 0.274271, -1.64882
0.150131, -0.106551, -1.65649
0.153741, 0.0111373, -1.6594
0.103411, -0.0417813, -1.61558
0.484858, -0.202186, -2.02496
0.0989562, 0.0913283, -1.6137
0.0586315, -0.168327, -1.59214
0.0819079, 0.076761, -1.61389
0.441787, -0.194846, -2.02599
0.441568, -0.194809, -2.02578
0.424349, 0.0693012, -2.0219
0.422853, 0.222555, -2.02056
0.430745, 0.225375, -2.0311
0.0658789, 0.0754248, -1.61688
0.418047, 0.0711451, -2.03152
0.390491, 0.0419638, -2.01356
0.35511, -0.198499, -1.99764
0.293002, -0.206954, -1.9611
0.309027, -0.260815, -1.99642
0.134562, 0.335869, -1.75203
0.276991, -0.219528, -1.97088
0.00218085, 0.22751, -1.5956
-0.0239772, -0.0395762, -1.57616
0.277284, -0.297539, -2.0328
0.188978, -0.201595, -1.93996
0.223436, 0.274746, -1.97981
0.116502, -0.245264, -1.89955
0.109607, -0.164891, -1.90525
-0.111163, 0.215284, -1.56437
0.0649328, -0.177638, -1.91098
0.0619159, -0.195643, -1.9056
0.059952, -0.187323, -1.90789
0.0519364, -0.191717, -1.90393
0.0483859, -0.251038, -1.92708
0.038746, 0.0722651, -1.90181
0.0304464, -0.199458, -1.89725
0.0279662, -0.196095, -1.89466
0.0425821, 0.253798, -1.92495
0.0291713, 0.0110211, -1.90934
0.0367364, 0.296038, -1.92632
-0.16034, -0.0688677, -1.53767
-0.168489, 0.0896089, -1.53682
0.000986935, 0.276406, -1.9053
-0.0525405, 0.0439867, -1.88537
-0.224394, -0.0589447, -1.51239
-0.224593, 0.0794773, -1.52372
-0.234622, 0.0912655, -1.52049
-0.246533, 0.0947219, -1.51335
-0.186144, 0.00543548, -1.86917
-0.190707, 0.019202, -1.87152
-0.211573, -0.161952, -1.82967
-0.283674, -0.0338531, -1.50191
-0.285205, -0.0571259, -1.49759
-0.287208, -0.0431076, -1.49562
-0.288072, -0.0529819, -1.49571
-0.288663, 0.0856574, -1.50427
-0.29027, -0.0662152, -1.49652
-0.291548, 0.102148, -1.50254
-0.2331, 0.0707389, -1.83348
-0.293676, 0.0834687, -1.50261
-0.294944, 0.0892727, -1.50083
-0.295625, -0.0425726, -1.49364
-0.296624, 0.0945193, -1.49882
-0.242473, -0.157201, -1.8084
-0.298878, -0.0558446, -1.4919
-0.300395, 0.0880324, -1.50179
-0.300809, 0.0797473, -1.50414
-0.251938, -0.138644, -1.80896
-0.303389, 0.0906078, -1.50231
-0.258592, 0.262538, -1.8335
-0.260258, 0.28513, -1.83954
-0.260842, 0.290585, -1.84688
-0.305743, -0.0278053, -1.49598
-0.308719, -0.047016, -1.48531
-0.30747, -0.0707712, -1.49394
-0.310271, -0.0350116, -1.48583
-0.311981, -0.0343501, -1.48637
-0.312368, -0.0656088, -1.48577
-0.312368, -0.0656088, -1.48577
-0.31333, 0.0788503, -1.49589
-0.312507, 0.0699979, -1.50065
-0.313131, -0.0285351, -1.49033
-0.317668, 0.0925028, -1.48422
-0.278685, 0.270872, -1.83507
-0.318351, -0.0443234, -1.47599
-0.320148, -0.0432547, -1.47312
-0.319541, -0.0480086, -1.47715
-0.321149, -0.0292133, -1.48278
-0.321553, -0.0279779, -1.4842
-0.324583, 0.0966787, -1.4816
-0.323302, -0.0473058, -1.4732
-0.324608, -0.0609941, -1.46851
-0.328419, -0.0418018, -1.47438
-0.331483, 0.0977061, -1.47806
-0.333404, 0.119773, -1.47962
-0.333453, 0.116775, -1.47795
-0.332682, 0.0645105, -1.47441
-0.331326, -0.0207551, -1.47343
-0.332153, -0.0769674, -1.46788
-0.333434, 0.0676847, -1.47574
-0.335342, 0.0945061, -1.47517
-0.335091, 0.0864364, -1.47908
-0.333488, -0.0308044, -1.47184
-0.335287, 0.0903616, -1.47658
-0.336297, 0.0982195, -1.4747
-0.334445, -0.0420066, -1.4712
-0.334384, -0.0421363, -1.47159
-0.336423, 0.0683581, -1.47507
-0.33509, -0.0218072, -1.472
-0.337496, 0.073414, -1.47326
0.234471, -0.0452269, -1.65149
0.186161, -0.115045, -1.62115
0.224846, 0.0148654, -1.65134
0.213825, 0.0148301, -1.64252
0.225881, 0.196484, -1.6604
0.221986, 0.200664, -1.65822
0.162343, -0.131341, -1.62853
0.182975, 0.0906641, -1.64446
0.118153, -0.173086, -1.60254
0.189283, 0.201829, -1.65517
0.121528, -0.170374, -1.61294
0.131778, -0.0424559, -1.62081
0.146058, -0.157954, -1.64363
0.130844, 0.0899772, -1.62238
0.131942, 0.0802495, -1.62487
0.103642, -0.074816, -1.6188
0.0890434, -0.0595857, -1.60494
0.132328, 0.2409, -1.63596
0.116966, 0.232759, -1.62898
0.478487, -0.0145417, -2.03804
0.4968, 0.016561, -2.059
0.455541, -0.235397, -2.02272
0.433494, -0.230427, -2.0074
0.424383, -0.210635, -2.01093
0.442796, 0.0694356, -2.02918
0.432105, 0.0616096, -2.02497
0.445663, 0.223451, -2.03183
0.406876, 0.0258665, -2.01092
0.398586, 0.0389571, -2.00466
0.391794, -0.238541, -2.00786
0.0485121, -0.167763, -1.61165
0.0485121, -0.167763, -1.61165
0.0372926, -0.0406789, -1.59637
0.360469, 0.0790491, -1.99292
0.0404866, 0.230081, -1.60783
0.0224651, 0.102341, -1.59815
0.330083, -0.256519, -2.00537
-0.0179644, -0.0607552, -1.57321
0.251886, 0.00569442, -1.94721
0.216842, -0.215655, -1.93985
-0.0529872, -0.0465969, -1.56569
-0.0569605, -0.0522794, -1.5603
-0.0503542, 0.212993, -1.58196
0.193809, 0.301671, -1.95824
0.154385, 0.307399, -1.96052
0.118198, 0.254405, -1.92135
0.138892, 0.298002, -1.95748
0.0649592, -0.155752, -1.899
-0.137691, -0.0445739, -1.53836
0.0709502, 0.235053, -1.92203
-0.147973, -0.0535051, -1.53594
0.036839, 0.232061, -1.89661
0.034616, -0.161857, -1.9106
0.0334257, 0.0239798, -1.90556
0.0368873, 0.253745, -1.92862
0.0294701, 0.249042, -1.91464
0.00595776, 0.0916556, -1.89541
-0.0381483, -0.0250632, -1.87866
-0.129647, 0.0468989, -1.86576
-0.240488, 0.0797616, -1.52152
-0.260341, -0.0492872, -1.50237
-0.27214, -0.0622591, -1.50027
-0.271749, 0.101394, -1.50803
-0.1887, -0.0132494, -1.85964
-0.280741, -0.0643142, -1.49968
-0.283875, -0.0414461, -1.49648
-0.227685, 0.281294, -1.83582
-0.231113, 0.0693072, -1.84034
-0.296382, 0.0873907, -1.50176
-0.297068, 0.0901172, -1.49999
-0.298669, -0.0446149, -1.49406
-0.2986, -0.0393216, -1.49464
-0.2986, -0.0393216, -1.49464
-0.299783, -0.0584462, -1.49197
-0.301132, 0.105849, -1.4998
-0.305425, 0.090152, -1.49478
-0.255342, -0.00319953, -1.82214
-0.254728, -0.166012, -1.83022
-0.30894, 0.108851, -1.49462
-0.306832, -0.0275253, -1.4978
-0.29479, 0.017011, -1.61725
-0.31256, -0.0602071, -1.48469
-0.296664, 0.0021006, -1.61235
-0.312884, -0.0360911, -1.48742
-0.312241, -0.0261706, -1.49548
-0.314144, -0.0700194, -1.49111
-0.285916, -0.0155504, -1.80239
-0.323293, 0.0882842, -1.48317
-0.287049, -0.167069, -1.8268
-0.323907, -0.0560746, -1.47095
-0.323118, -0.0270814, -1.48057
-0.324795, -0.0380012, -1.47427
-0.325223, -0.0476908, -1.47283
-0.31588, 0.018025, -1.60484
-0.316417, 0.0181016, -1.60025
-0.328689, -0.036262, -1.4749
-0.330318, -0.0504405, -1.47285
-0.331454, -0.0490331, -1.47144
-0.334659, 0.112156, -1.47554
-0.334422, 0.112566, -1.47657
-0.333372, 0.0660451, -1.47443
-0.335361, 0.10042, -1.47275
-0.335539, 0.0809096, -1.47131
-0.335109, -0.0507906, -1.46969
-0.337328, 0.100428, -1.47299
0.21355, -0.0255653, -1.64503
0.189394, 0.0621942, -1.64003
0.171472, -0.0435518, -1.63125
0.170528, -0.008353, -1.63295
0.222725, 0.318434, -1.6636
0.140722, -0.173619, -1.61194
0.14888, -0.0601454, -1.62122
0.135255, -0.0609024, -1.61818
0.139791, 0.106373, -1.63069
0.110409, -0.16824, -1.61774
0.502113, -0.0294584, -2.05249
0.0886498, 0.0802777, -1.61557
0.0886498, 0.0802777, -1.61557
0.413262, 0.0635582, -2.0137
0.0588636, 0.0993507, -1.60724
0.0415061, -0.168514, -1.59989
0.0415061, -0.168514, -1.59989
0.397883, 0.0557229, -2.0067
0.0507214, -0.168184, -1.61156
0.372247, -0.230031, -1.99225
0.378378, 0.0238901, -2.01731
0.358142, -0.0401411, -1.99541
0.36704, 0.0373297, -2.00539
0.366886, 0.0516957, -2.00579
0.0441302, 0.218369, -1.61019
0.0449534, 0.222817, -1.61132
-0.0178736, -0.0406928, -1.57882
0.264086, -0.252572, -1.98419
-0.0229523, 0.0763102, -1.58692
0.211628, -0.223553, -1.94057
0.212321, -0.230302, -1.94151
-0.0657465, -0.0546517, -1.55738
0.201442, 0.237747, -1.93583
0.201442, 0.237747, -1.93583
-0.0610555, 0.219122, -1.57481
0.196132, 0.296131, -1.96924
0.174119, 0.300639, -1.96512
0.155144, 0.291508, -1.96868
-0.0964438, 0.20442, -1.58044
0.0686434, 0.0692919, -1.91098
-0.021394, 0.0177665, -1.89007
-0.0406562, 0.27752, -1.92214
-0.0511399, 0.292614, -1.92343
-0.0614364, 0.282623, -1.8975
-0.226684, 0.0789254, -1.5267
-0.123436, 0.0623178, -1.86418
-0.240077, 0.0761159, -1.52335
-0.299885, 0.0994333, -1.49915
-0.266551, -0.149685, -1.8046
-0.313269, -0.0624594, -1.48544
-0.295949, 0.0192508, -1.61622
-0.314276, -0.0272655, -1.4952
-0.315474, -0.0724006, -1.49237
-0.320752, -0.0587375, -1.47582
-0.320508, -0.039166, -1.47917
-0.320783, -0.0603696, -1.47647
-0.330488, -0.0357668, -1.47365
-0.33167, -0.06202, -1.46926
0.16847, -0.188379, -1.60918
0.216581, 0.072181, -1.64944
0.231145, 0.258269, -1.66639
0.127051, -0.173493, -1.60521
0.154042, 0.10306, -1.63133
0.134641, -0.0520115, -1.61855
0.130574, -0.0445973, -1.61733
0.153345, 0.103289, -1.63794
0.113116, -0.172561, -1.60727
0.112003, -0.0517102, -1.60816
0.116209, -0.168551, -1.61831
0.148216, 0.0670724, -1.64753
0.107589, -0.0482516, -1.61071
0.122117, 0.0821106, -1.62226
0.109711, -0.0725193, -1.61519
0.146938, 0.23949, -1.63964
0.104222, -0.169497, -1.61538
0.129557, 0.0662208, -1.6349
0.485622, -0.228542, -2.02008
0.485622, -0.228542, -2.02008
0.118138, 0.105047, -1.6272
0.112981, 0.102024, -1.62926
0.448946, -0.212773, -2.00911
0.445796, -0.19198, -2.02263
0.446739, 0.0649891, -2.02732
0.446739, 0.0649891, -2.02732
0.18352, 0.340184, -1.7523
0.0424284, 0.0964125, -1.60252
0.0131912, 0.0692705, -1.60883
-0.0258648, 0.0759076, -1.58324
-0.0544384, -0.0695144, -1.56514
-0.0597775, -0.0575533, -1.56066
0.107092, 0.29181, -1.93147
-0.257905, -0.0662117, -1.50841
-0.298456, 0.0960641, -1.49865
-0.300159, -0.0547224, -1.4933
-0.320528, -0.0573687, -1.47695
-0.32368, -0.0333053, -1.4751
-0.312903, 0.0228822, -1.60011
-0.325612, -0.037129, -1.47425
-0.326843, -0.0602896, -1.47208
-0.32818, -0.0339276, -1.47623
-0.318971, 0.0185918, -1.60206
-0.318971, 0.0185918, -1.60206
-0.330571, -0.0443339, -1.47169
0.21717, 0.00871719, -1.6453
0.153414, 0.0841584, -1.62308
0.157834, 0.075913, -1.63212
0.131147, 0.0823153, -1.62254
0.123399, 0.0744673, -1.62649
0.164438, -0.0138213, -1.67264
0.459653, 0.00395622, -2.0289
0.435987, 0.055061, -2.02078
0.00413906, -0.033134, -1.59722
-0.0295537, -0.0437517, -1.57246
0.262808, 0.0472889, -1.98462
0.180685, -0.199478, -1.91333
-0.150218, 0.0857743, -1.54346
-0.203364, -0.063807, -1.52002
-0.223826, -0.0641724, -1.51389
-0.286749, -0.0402095, -1.49722
-0.308987, 0.115178, -1.49541
-0.316975, 0.0690493, -1.50772
-0.322541, -0.0412533, -1.47706
-0.328364, -0.0468959, -1.46796
-0.329653, -0.0586514, -1.46905
0.210745, -0.18208, -1.61874
0.230281, 0.229093, -1.66188
0.175095, -0.0517336, -1.62747
0.158767, 0.0651893, -1.63368
0.155754, 0.0822991, -1.63627
0.132841, -0.0737215, -1.61904
0.0516607, -0.167501, -1.60511
0.0110925, 0.221651, -1.59997
0.242722, 0.0671114, -1.97915
-0.0868136, 0.0869244, -1.56325
0.120836, 0.289408, -1.94181
-0.264408, -0.0541379, -1.50154
-0.264102, -0.0544283, -1.50255
-0.266292, -0.0465551, -1.50193
-0.320144, -0.0613693, -1.47764
-0.317659, 0.0139235, -1.59857
-0.334631, -0.0513577, -1.46997
-0.335653, -0.0276722, -1.47055
0.224191, -0.0865079, -1.63435
0.206379, -0.157112, -1.62613
0.206727, -0.120195, -1.62819
0.210737, -0.0825943, -1.63408
0.205558, -0.049891, -1.63229
0.205558, -0.049891, -1.63229
0.239189, 0.114602, -1.65672
0.229362, 0.15765, -1.66442
0.212538, 0.17513, -1.6507
0.212043, 0.220637, -1.65297
0.21805, 0.231008, -1.65968
0.21805, 0.231008, -1.65968
0.190959, 0.209826, -1.64638
0.193343, 0.210331, -1.64842
0.372182, -0.0290193, -2.02588
-0.0717956, 0.214819, -1.57483
0.0695482, -0.227813, -1.90343
-0.112765, 0.0508142, -1.86937
-0.2762, -0.053847, -1.49526
-0.311793, -0.0321325, -1.48801
0.236608, 0.0425159, -1.65027
0.207613, -0.068771, -1.63243
0.209042, -0.0389229, -1.63453
0.211172, -0.00601786, -1.63824
0.211172, -0.00601786, -1.63824
0.223481, 0.107922, -1.65454
0.223481, 0.107922, -1.65454
0.172109, -0.0151299, -1.62959
0.173864, -0.0040738, -1.63192
0.176765, 0.0281201, -1.63568
0.181197, 0.150301, -1.64721
-0.293281, -0.0470783, -1.49402
0.245474, 0.0974195, -1.66047
0.152036, -0.075112, -1.6463
0.227479, -0.23099, -1.9424
0.178216, -0.247519, -1.93185
0.194855, 0.0574175, -1.94583
0.570424, -0.20377, -2.04784
0.690529, 0.00242307, -2.11624
0.506454, -0.139279, -2.03562
0.22609, -0.298159, -1.63565
0.226596, -0.277395, -1.6327
0.499626, -0.0870025, -2.03718
0.227559, -0.238003, -1.63716
0.193318, -0.271779, -1.62092
0.215672, -0.216439, -1.63389
0.496679, 0.0882583, -2.04216
0.499795, 0.0952477, -2.05033
0.523986, 0.198783, -2.02761
0.142671, -0.353963, -1.61609
0.159242, -0.295354, -1.61517
0.138044, -0.330913, -1.60112
0.163307, -0.268284, -1.61939
0.210745, -0.147121, -1.63656
0.176016, -0.20397, -1.61992
0.124848, -0.333696, -1.59851
0.123858, -0.332303, -1.59885
0.121444, -0.332364, -1.59536
0.124011, -0.333121, -1.60099
0.114611, -0.339518, -1.59387
0.117691, -0.324129, -1.59456
0.111136, -0.340303, -1.599
0.229147, -0.0347721, -1.65035
0.157305, -0.207095, -1.61428
0.151646, -0.20465, -1.6122
0.225159, -0.0170807, -1.64811
0.225159, -0.0170807, -1.64811
0.216409, -0.0284253, -1.64501
0.184727, -0.105226, -1.62983
0.0978698, -0.341632, -1.59521
0.0974696, -0.343825, -1.59848
0.0970222, -0.342033, -1.59669
0.0974856, -0.348725, -1.60648
0.150879, -0.224717, -1.65339
0.0920218, -0.348458, -1.6022
0.138526, -0.204812, -1.61265
0.092001, -0.344855, -1.60232
0.226093, 0.0298999, -1.65151
0.166968, -0.098161, -1.62685
0.0805996, -0.325992, -1.5842
0.127748, -0.19224, -1.60657
0.118815, -0.194277, -1.60727
0.123308, -0.350931, -1.73312
0.115531, -0.186102, -1.60603
0.221964, 0.118702, -1.65534
0.175846, -0.00292923, -1.63526
0.0997708, -0.209893, -1.60983
0.142603, -0.0725259, -1.62323
0.0967536, -0.21243, -1.6097
0.190221, 0.0850101, -1.64536
0.168905, 0.0283279, -1.63474
0.213854, 0.164361, -1.6539
0.170149, 0.0382517, -1.63612
0.165889, 0.0294841, -1.63976
0.222589, -0.169886, -1.95603
0.0935314, -0.348338, -1.73419
0.17312, 0.0604253, -1.63987
0.130684, -0.0833677, -1.64013
0.040339, -0.321544, -1.57429
0.0800116, -0.198793, -1.59553
0.0776132, -0.213443, -1.60613
0.201166, 0.181858, -1.64484
0.0308654, -0.320953, -1.57084
0.0785162, -0.351166, -1.7322
0.112913, -0.0765762, -1.62126
0.153916, 0.0958421, -1.62598
0.105028, -0.0641166, -1.61233
0.256391, 0.0332178, -1.99024
0.101886, -0.0702615, -1.61015
0.0584618, -0.211531, -1.5975
0.101673, -0.0767472, -1.62028
0.0687963, -0.330742, -1.72679
0.0991082, -0.0772654, -1.61904
0.0566051, -0.199107, -1.5889
0.057016, -0.198891, -1.58969
0.0981742, -0.0779017, -1.62217
0.0541659, -0.211024, -1.59634
0.0532471, -0.209298, -1.5932
0.166946, 0.164144, -1.63984
0.0927762, -0.0795681, -1.61989
0.181152, -0.135351, -1.941
0.0907893, -0.0652733, -1.60732
0.00852009, -0.347616, -1.58001
0.00852009, -0.347616, -1.58001
0.0469006, -0.209817, -1.59135
0.0875833, -0.0716517, -1.61198
0.173743, 0.213432, -1.64409
0.17734, 0.22625, -1.64537
0.17425, 0.219729, -1.64534
0.13101, 0.0813042, -1.62611
0.131014, 0.0712892, -1.63413
0.0449926, -0.194699, -1.58469
0.0429992, -0.206137, -1.58984
0.130082, 0.0838646, -1.62689
-0.00199182, -0.33686, -1.56196
0.0375464, -0.207389, -1.58794
0.0379473, -0.206512, -1.58918
0.0422937, -0.182744, -1.58776
0.0761802, -0.068066, -1.60293
0.0761802, -0.068066, -1.60293
0.202832, 0.00961156, -1.95009
0.0759389, -0.0805567, -1.62218
0.276935, 0.255026, -2.01673
0.152291, 0.198449, -1.64939
-0.00980771, -0.326866, -1.55774
0.20139, 0.0446502, -1.95379
0.111369, 0.0813242, -1.62249
0.113004, 0.065509, -1.65262
0.107031, 0.0800339, -1.62276
0.0998081, 0.0754072, -1.62476
0.109221, -0.182689, -1.89611
0.0908046, 0.0728864, -1.62142
0.0188403, -0.326307, -1.71354
0.085002, 0.0714852, -1.61998
0.00857802, -0.185831, -1.57448
0.122904, 0.216604, -1.63363
0.0479847, -0.367445, -1.87307
0.0827366, 0.0739637, -1.61869
0.0996361, -0.185097, -1.91359
0.119765, 0.205042, -1.64462
-0.0356864, -0.329973, -1.55096
0.215057, 0.335922, -1.88596
0.207977, 0.339749, -1.8573
0.203584, 0.222609, -1.95159
0.116593, 0.215161, -1.63492
0.100238, -0.167787, -1.92076
0.0955487, -0.182591, -1.91828
-0.0395227, -0.335292, -1.5508
-0.0385008, -0.336639, -1.55587
0.0759983, 0.0697797, -1.6252
0.0948015, -0.15699, -1.90794
0.0997752, -0.143607, -1.92175
0.101258, -0.121989, -1.9175
0.032607, -0.352041, -1.85597
0.0289135, -0.359225, -1.85602
0.202625, 0.256386, -1.9801
0.0565862, 0.0807972, -1.60495
0.055794, 0.0689326, -1.61642
0.0157, -0.0724959, -1.59089
0.0122661, -0.0645689, -1.58622
0.049712, 0.0730884, -1.61272
-0.0579846, -0.327031, -1.54439
0.0474707, 0.0687616, -1.61283
0.0474095, 0.0751028, -1.60751
0.0871958, 0.20719, -1.65476
0.102706, 0.0178679, -1.92789
0.102706, 0.0178679, -1.92789
0.0404218, 0.0927162, -1.59762
0.0997242, 0.0236623, -1.93018
-0.00479561, -0.349366, -1.8446
0.0674637, 0.212708, -1.65164
0.125514, 0.205817, -1.92293
-0.0154801, -0.0642515, -1.57739
0.0761934, 0.0316305, -1.92302
0.0309909, -0.153575, -1.90165
0.0489049, 0.206721, -1.62765
-0.0205599, -0.0617434, -1.57579
0.0276165, -0.160732, -1.90063
0.0769305, 0.0711244, -1.91598
0.0771814, 0.0855957, -1.9181
0.077056, 0.0926288, -1.91821
0.1025, 0.201759, -1.93221
0.106528, 0.226421, -1.93188
-0.0346788, -0.345089, -1.83492
0.0970216, 0.333377, -1.79712
-0.00197647, 0.0764895, -1.59478
0.00358252, -0.155459, -1.89474
0.0953954, 0.279308, -1.95831
0.0487091, 0.0903639, -1.91027
0.0154158, 0.208385, -1.6071
0.0762427, 0.336531, -1.79807
-0.0788238, -0.207393, -1.55651
-0.0811958, -0.208811, -1.55733
-0.0482714, -0.0471453, -1.56639
-0.0539552, -0.075802, -1.57653
-0.119135, -0.32736, -1.52588
-0.100594, -0.204774, -1.54941
-0.00739769, 0.0306915, -1.89235
0.0413961, 0.270426, -1.94383
0.0406507, 0.28354, -1.94713
-0.107282, -0.189954, -1.54025
-0.109599, -0.20732, -1.54782
0.0405596, 0.302077, -1.9487
-0.112068, -0.203238, -1.54439
-0.114902, -0.201801, -1.54136
-0.0650361, 0.0684201, -1.58764
-0.039516, 0.202898, -1.60516
-0.121503, -0.199475, -1.53732
0.00453857, 0.25947, -1.93272
0.00769222, 0.292152, -1.93807
-0.15238, -0.321772, -1.5178
-0.130234, -0.201953, -1.53707
-0.15656, -0.325285, -1.51661
-0.0584726, 0.203242, -1.60267
-0.0584726, 0.203242, -1.60267
-0.135628, -0.210679, -1.54481
-0.112095, -0.0668984, -1.5501
-0.11289, -0.0537133, -1.54613
-0.0731905, 0.203098, -1.60072
-0.146383, -0.199264, -1.53121
-0.148632, -0.20384, -1.53259
-0.0430715, 0.229625, -1.89189
-0.0430715, 0.229625, -1.89189
-0.150148, -0.203501, -1.53275
-0.0798586, 0.0123752, -1.87862
-0.151918, -0.19972, -1.52987
-0.106957, 0.07563, -1.55897
-0.149017, -0.340654, -1.79937
-0.108526, 0.0816681, -1.5569
-0.13281, -0.0776959, -1.55677
-0.13281, -0.0776959, -1.55677
-0.157646, -0.203265, -1.53101
-0.137623, -0.0734111, -1.54825
-0.0512574, 0.27938, -1.9191
-0.183466, -0.335955, -1.51372
-0.162703, -0.204141, -1.52981
-0.0957574, 0.0574865, -1.87509
-0.165303, -0.192438, -1.52271
-0.148713, -0.0536017, -1.53402
-0.171608, -0.193947, -1.52199
-0.130961, 0.0697036, -1.56186
-0.154354, -0.0728296, -1.54268
-0.113825, 0.0255251, -1.88326
-0.195757, -0.337796, -1.51211
-0.155408, -0.0763824, -1.54801
-0.176639, -0.196951, -1.52119
-0.119495, 0.201731, -1.57546
-0.160896, -0.0688414, -1.53662
-0.161459, -0.0657011, -1.53527
-0.186459, -0.356637, -1.79777
-0.183245, -0.203663, -1.52312
-0.184051, -0.201593, -1.52144
-0.126293, 0.0596247, -1.86228
-0.146274, 0.0784391, -1.54645
-0.202283, -0.31268, -1.50607
-0.167529, -0.063124, -1.53067
-0.205338, -0.323928, -1.50189
-0.189034, -0.193653, -1.51612
-0.152143, 0.0750662, -1.54697
-0.152143, 0.0750662, -1.54697
-0.153071, 0.0917807, -1.53975
-0.10794, 0.280573, -1.90197
-0.193356, -0.203416, -1.52012
-0.194392, -0.190387, -1.51436
-0.141795, 0.205889, -1.56692
-0.217389, -0.337316, -1.50315
-0.199077, -0.191686, -1.5133
-0.182684, -0.0622224, -1.52634
-0.182684, -0.0622224, -1.52634
-0.218519, -0.328432, -1.49928
-0.183139, -0.0559456, -1.52395
-0.18427, -0.0622151, -1.52628
-0.150407, 0.208036, -1.56361
-0.167574, 0.0787593, -1.54375
-0.163184, 0.0739162, -1.88162
-0.21043, -0.200276, -1.51308
-0.210436, -0.197616, -1.5122
-0.211286, -0.205163, -1.51715
-0.211773, -0.201254, -1.51349
-0.228938, -0.33408, -1.49787
-0.165609, 0.198773, -1.56506
-0.179504, 0.0877009, -1.53605
-0.179504, 0.0877009, -1.53605
-0.2145, -0.199764, -1.51213
-0.216821, -0.19789, -1.51005
-0.232616, -0.315227, -1.49623
-0.187052, 0.0865455, -1.5297
-0.185491, 0.0475594, -1.85611
-0.222738, -0.195829, -1.50721
-0.209558, -0.108899, -1.83459
-0.2262, -0.203563, -1.51179
-0.24253, -0.347443, -1.63989
-0.196943, 0.0748214, -1.53296
-0.213159, -0.0716436, -1.52458
-0.229138, -0.209309, -1.5155
-0.22974, -0.213171, -1.52787
-0.244533, -0.33783, -1.49858
-0.244533, -0.33783, -1.49858
-0.217425, -0.0735346, -1.52447
-0.21772, -0.0639984, -1.51685
-0.218697, -0.0745102, -1.52801
-0.233921, -0.199519, -1.50659
-0.205117, 0.0829489, -1.52964
-0.220308, -0.0606032, -1.51421
-0.236845, -0.204887, -1.51018
-0.223012, -0.0671628, -1.51679
-0.20875, 0.0818408, -1.83522
-0.237669, -0.19126, -1.50186
-0.237682, -0.191129, -1.50229
-0.237308, -0.183614, -1.50307
-0.24571, -0.202331, -1.50421
-0.24571, -0.202331, -1.50421
-0.22207, 0.069986, -1.54262
-0.26117, -0.32954, -1.48717
-0.235104, -0.0604973, -1.50955
-0.22409, 0.0667672, -1.53614
-0.235946, -0.0593751, -1.50939
-0.249676, -0.198687, -1.50105
-0.250526, -0.134741, -1.80932
-0.240085, -0.0669935, -1.51127
-0.254981, -0.155182, -1.80659
-0.236196, 0.0571883, -1.83298
-0.218699, 0.292121, -1.8634
-0.255863, -0.199617, -1.49986
-0.259082, -0.153695, -1.80808
-0.224989, 0.218885, -1.82883
-0.262558, -0.185548, -1.80409
-0.234746, 0.0637671, -1.53069
-0.257676, -0.198434, -1.4989
-0.270234, -0.326082, -1.48391
-0.258404, -0.191936, -1.49647
-0.247945, -0.0661676, -1.50804
-0.272889, -0.330365, -1.48445
-0.266116, -0.1649, -1.8027
-0.261525, -0.186171, -1.49426
-0.253167, -0.0603282, -1.50328
-0.266361, -0.204759, -1.50103
-0.245511, 0.0650317, -1.53135
-0.246442, 0.0654241, -1.52969
-0.279405, -0.332345, -1.48355
-0.279032, -0.163617, -1.80066
-0.26415, 0.0474101, -1.81271
-0.252136, 0.0827158, -1.51398
-0.252459, 0.244137, -1.82258
-0.284828, -0.328953, -1.48041
-0.288265, -0.189919, -1.79738
-0.271903, 0.00899726, -1.8088
-0.276567, -0.197392, -1.49316
-0.260511, 0.213941, -1.81825
-0.263363, 0.237218, -1.81529
-0.278926, -0.185311, -1.48983
-0.262584, 0.264494, -1.83435
-0.290169, -0.320988, -1.47794
-0.262354, 0.0764916, -1.50817
-0.281812, -0.193359, -1.48974
-0.283522, -0.201672, -1.4941
-0.274681, -0.0550619, -1.4979
-0.270188, 0.281521, -1.83059
-0.296432, -0.32276, -1.47789
-0.296432, -0.32276, -1.47789
-0.292365, -0.20702, -1.4977
-0.296833, 0.0452431, -1.80512
-0.295576, -0.208578, -1.49949
-0.28504, 0.292825, -1.82889
-0.294475, -0.199656, -1.48903
-0.276907, 0.0885156, -1.49818
-0.288054, 0.23792, -1.81147
-0.300609, 0.0322938, -1.80111
-0.304094, 0.0282938, -1.81686
-0.301689, 0.0501215, -1.80138
-0.28934, -0.0717273, -1.50221
-0.288468, -0.064304, -1.49583
-0.289714, -0.062586, -1.49451
-0.289643, -0.0568109, -1.49186
-0.296272, 0.220193, -1.80417
-0.294188, 0.27991, -1.8236
-0.300498, -0.205435, -1.49508
-0.285476, 0.0677154, -1.5124
-0.308264, -0.329586, -1.46938
-0.301616, -0.206893, -1.49741
-0.297315, 0.274815, -1.82186
-0.297983, 0.23589, -1.80591
-0.287597, 0.070856, -1.5046
-0.289258, 0.0707015, -1.50553
-0.291147, 0.0639521, -1.52403
-0.295469, -0.0597723, -1.49076
-0.301874, -0.181554, -1.48199
-0.296717, -0.0668436, -1.49711
-0.296717, -0.0668436, -1.49711
-0.30388, 0.269015, -1.81737
-0.30388, 0.269015, -1.81737
-0.316311, 0.0281125, -1.7976
-0.308476, 0.234315, -1.80647
-0.299501, -0.0482863, -1.49022
-0.318788, 0.0763404, -1.79512
-0.318944, 0.0850711, -1.79592
-0.299326, 0.0658554, -1.5059
-0.299193, 0.0708554, -1.5121
-0.321528, -0.347737, -1.48491
-0.321532, -0.347783, -1.48483
-0.339623, -0.178859, -1.78108
-0.317165, -0.216776, -1.50134
-0.320911, 0.236082, -1.80211
-0.301372, 0.0832395, -1.49298
-0.322189, 0.232614, -1.79125
-0.323205, 0.230029, -1.79617
-0.323407, -0.329176, -1.45805
-0.323752, -0.305483, -1.45878
-0.319813, -0.0729649, -1.48495
-0.324352, -0.197982, -1.4701
-0.316819, 0.0692046, -1.50714
-0.317502, 0.0743249, -1.50285
-0.329194, -0.189349, -1.46556
-0.325413, 0.0670713, -1.50375
-0.332246, -0.196703, -1.46874
-0.325372, 0.0787328, -1.49527
-0.325739, 0.0708799, -1.49993
-0.323782, 0.0893724, -1.48304
-0.331432, 0.0676635, -1.50659
-0.336665, -0.175385, -1.4681
-0.331657, 0.0841603, -1.46504
-0.335756, -0.0531741, -1.46476
-0.335379, 0.0820072, -1.47437
-0.343604, -0.205971, -1.46353
-0.343645, -0.208273, -1.4636
-0.335282, 0.0850554, -1.46402
-0.343133, -0.166036, -1.46475
-0.348345, -0.217264, -1.48673
-0.344229, -0.181404, -1.46455
-0.33748, 0.0605565, -1.46409
-0.344081, -0.143209, -1.44548
-0.347271, -0.161628, -1.46388
-0.351358, -0.285447, -1.45625
-0.347001, -0.153059, -1.46072
-0.348102, -0.152786, -1.46024
-0.352289, -0.185843, -1.46417
-0.349139, -0.151213, -1.44638
-0.352058, -0.148217, -1.41079
-0.352058, -0.148217, -1.41079
-0.364601, -0.156883, -1.45328
-0.359904, -0.14908, -1.42063
-0.368326, -0.176342, -1.45165
-0.369236, -0.216696, -1.45181
-0.357331, -0.147006, -1.37766
-0.370978, -0.167689, -1.45233
-0.369942, -0.150456, -1.43458
-0.374697, -0.203642, -1.44832
-0.377803, -0.203422, -1.44507
-0.362949, -0.0425524, -1.36668
-0.382703, -0.177109, -1.4483
-0.382504, -0.191299, -1.44521
-0.382513, -0.194922, -1.44437
-0.363763, -0.118371, -1.34494
-0.373058, -0.322501, -1.37875
-0.385402, -0.222013, -1.44384
-0.386676, -0.21212, -1.44679
-0.366921, -0.142675, -1.34581
-0.374581, -0.282672, -1.37889
-0.388457, -0.199849, -1.44341
-0.388613, -0.222303, -1.44385
-0.388952, -0.201424, -1.44378
-0.390357, -0.227415, -1.44446
-0.391257, -0.181067, -1.44636
-0.391257, -0.181067, -1.44636
